# .PCD v0.7 - Point Cloud Data file format
VERSION 0.7
FIELDS x y z
SIZE 4 4 4
TYPE F F F
COUNT 1 1 1
WIDTH 1445
HEIGHT 1
VIEWPOINT 0 0 0 1 0 0 0
POINTS 1445
DATA ascii
-0.2500098 1.1299088 0.60144317
-0.23012023 1.1299201 0.6013965
-0.21011743 1.1298566 0.60134977
-0.19005749 1.1298468 0.60130304
-0.16999541 1.129837 0.60125601
-0.1499863 1.1298229 0.60120916
-0.13003008 1.1298208 0.60116231
-0.11001682 1.1298081 0.60111535
-0.090057343 1.1298318 0.60106844
-0.070207253 1.1298553 0.60102201
-0.050356239 1.1298791 0.60097539
-0.030385686 1.1297691 0.60092932
-0.010462376 1.1299794 0.60088122
0.0097702611 1.1305009 0.60083157
0.029844832 1.130491 0.60078442
0.04992155 1.1304816 0.60073751
0.07000038 1.1304725 0.60069042
0.090081364 1.1304626 0.60064346
0.11010555 1.1305063 0.60059613
0.13001122 1.1305246 0.60054946
0.14991921 1.1304598 0.60050309
0.16988942 1.1304418 0.60045636
0.18992186 1.1304141 0.60040963
0.20995578 1.1304135 0.60036284
0.22999258 1.1303955 0.60031569
0.25003111 1.130385 0.6002689
0.27001214 1.1304293 0.60022175
0.2899349 1.1304021 0.60017514
0.30992055 1.1303563 0.60012883
0.32996708 1.1303828 0.60008132
0.3490994 1.1292462 0.60004193
0.36768231 1.1247258 0.60001969
0.3819564 1.121316 0.60000229
-0.48419684 1.1489462 0.60190237
-0.4699989 1.1498858 0.6018647
-0.45002583 1.1499459 0.60181773
-0.42999068 1.1499534 0.6017707
-0.40995529 1.1499201 0.60172403
-0.38997561 1.1499022 0.60167706
-0.36999294 1.1498866 0.60163039
-0.35006773 1.1498679 0.60158378
-0.33013919 1.1498858 0.60153705
-0.31003398 1.1498421 0.60149008
-0.28998628 1.1498944 0.60144269
-0.27005145 1.1498425 0.60139632
-0.25000143 1.1498591 0.60134929
-0.23005639 1.1505643 0.60129905
-0.21002403 1.1505626 0.6012522
-0.18993612 1.150543 0.60120517
-0.16990066 1.1505493 0.6011582
-0.14991507 1.1504978 0.60111177
-0.12998278 1.1504978 0.6010651
-0.10999435 1.1505085 0.60101807
-0.089896917 1.1505665 0.60097063
-0.069797538 1.1505706 0.6009236
-0.049854409 1.1504668 0.60087729
-0.030020766 1.1504583 0.60083085
-0.010185026 1.1504498 0.6007843
0.0096528009 1.1504419 0.60073787
0.029606566 1.1505282 0.60069066
0.04982803 1.1505222 0.60064334
0.070048407 1.1503993 0.60059655
0.09005858 1.1503874 0.6005497
0.11001644 1.1503708 0.60050303
0.1299767 1.1503537 0.6004563
0.14993869 1.1504339 0.60040915
0.17001034 1.1504076 0.60036212
0.1900848 1.150393 0.60031503
0.21005265 1.1503756 0.60026848
0.23002285 1.1503595 0.60022187
0.24999546 1.1503425 0.60017496
0.26996955 1.1503813 0.60012805
0.2900542 1.1503097 0.60008138
0.30928606 1.1489211 0.60004282
0.32811165 1.1443909 0.60001987
0.34226167 1.1407678 0.60000384
-0.48180801 1.1656467 0.60181826
-0.46999717 1.1694105 0.60177284
-0.44994542 1.1693995 0.601726
-0.42999759 1.1693652 0.60167927
-0.41004729 1.169422 0.60163224
-0.39004242 1.1694237 0.60158545
-0.36990717 1.1694472 0.60153812
-0.34997609 1.1700782 0.60148847
-0.32995173 1.1701201 0.60144126
-0.3100256 1.1700569 0.60139495
-0.29004496 1.1700265 0.60134828
-0.26996577 1.1700824 0.60130084
-0.24997878 1.1700408 0.60125422
-0.22999524 1.1707616 0.60120398
-0.20998968 1.1707768 0.60115713
-0.19003181 1.1707271 0.60111052
-0.17001887 1.1707342 0.60106361
-0.14995447 1.1706852 0.60101676
-0.12999067 1.1706589 0.60097021
-0.10992038 1.1708145 0.60092223
-0.090008505 1.1707244 0.60087591
-0.070195444 1.1705388 0.6008305
-0.049909081 1.1707338 0.60078192
-0.029721038 1.1707026 0.60073483
-0.010066392 1.1706443 0.60068917
0.0096474253 1.1707296 0.60064232
0.029992232 1.170542 0.60059571
0.050248522 1.1706216 0.60054773
0.069910243 1.1706653 0.60050148
0.089896061 1.1707425 0.60045433
0.11004148 1.1705389 0.60040814
0.13003311 1.1705641 0.60036111
0.15002303 1.1706383 0.6003139
0.17001711 1.1706111 0.60026717
0.18990695 1.1705544 0.60022086
0.20990548 1.1706418 0.60017347
0.23001203 1.1705242 0.60012692
0.25001511 1.1705123 0.60007989
0.26916382 1.1692666 0.60004103
0.28779572 1.1646353 0.60001934
0.30168366 1.1612246 0.60000265
-0.46843007 1.1892096 0.60166854
-0.45005667 1.1898309 0.60162175
-0.42997977 1.1897693 0.60157698
-0.40995368 1.1898464 0.60153067
-0.39002103 1.1898322 0.60148597
-0.37016112 1.1899128 0.60144037
-0.35000271 1.1905166 0.60139185
-0.33003277 1.1904756 0.60134566
-0.31000602 1.1904786 0.60129875
-0.28997922 1.190447 0.6012519
-0.27000141 1.190485 0.60120499
-0.24996978 1.1904227 0.60115832
-0.22998974 1.190498 0.60111111
-0.21005757 1.190406 0.60106486
-0.19002147 1.1904477 0.60101771
-0.16997918 1.1904309 0.60097075
-0.14998981 1.190431 0.6009239
-0.12994507 1.190356 0.60087734
-0.1100065 1.1905593 0.6008296
-0.090057872 1.1902092 0.6007846
-0.069963127 1.1905549 0.60073578
-0.050170563 1.1903739 0.60069025
-0.030061619 1.1903665 0.60064334
-0.0099505624 1.1903608 0.60059601
0.010162672 1.1903541 0.6005488
0.030278023 1.1903471 0.60050189
0.049923193 1.190508 0.60045505
0.070029631 1.190172 0.60040957
0.090053335 1.1904515 0.60036129
0.10996097 1.1903489 0.60031509
0.13003387 1.190256 0.60026842
0.15000059 1.1904024 0.60022092
0.16997434 1.1903335 0.60017455
0.19004883 1.1902622 0.6001277
0.21002671 1.190328 0.60008049
0.22908574 1.1890963 0.60004157
0.24772373 1.1846722 0.6000188
0.26132974 1.1811906 0.60000336
-0.46673229 1.20281 0.60057837
-0.44991982 1.2027717 0.6005677
-0.43033516 1.2022715 0.60067964
-0.40993127 1.2021394 0.60069025
-0.38997641 1.2021364 0.60066605
-0.37002036 1.2021332 0.60064179
-0.35006326 1.2021304 0.60061747
-0.33010507 1.2021277 0.60059315
-0.31014583 1.2021245 0.60056913
-0.29018539 1.2021215 0.60054493
-0.27022392 1.202119 0.60052073
-0.25026131 1.2021158 0.60049647
-0.23004122 1.2020799 0.60048085
-0.21009611 1.2021421 0.60043889
-0.18986389 1.2020749 0.60043216
-0.16991743 1.2021372 0.60038984
-0.14969245 1.2021012 0.6003744
-0.12975143 1.201435 0.60053128
-0.10977679 1.201432 0.60050708
-0.089801073 1.2014291 0.60048276
-0.069824263 1.2014263 0.60045862
-0.049846366 1.2014232 0.60043436
-0.02986737 1.2014199 0.60040909
-0.0098873461 1.2014159 0.60037577
0.010094221 1.2014115 0.60034031
0.030077375 1.2014072 0.60030478
0.050062157 1.2014028 0.6002692
0.070048533 1.2013984 0.60023367
0.090036549 1.2013938 0.60019821
0.11002614 1.2013896 0.60016257
0.13001736 1.2013851 0.60012704
0.14965686 1.2013537 0.60009515
0.17006329 1.200698 0.60012549
0.19006866 1.2006921 0.60007852
0.21007614 1.2006862 0.60003179
0.22193336 1.2006828 0.60000396
-0.34321541 0.49042663 0.63008749
-0.32977197 0.49441114 0.63057441
-0.31005254 0.49473214 0.63090366
-0.28999513 0.49481407 0.63094652
-0.27008885 0.49489588 0.63107371
-0.25004002 0.4949784 0.63120157
-0.22998913 0.49505964 0.63111311
-0.21617292 0.49511939 0.63182193
0.27419418 0.49711859 0.63134158
0.29001307 0.49717909 0.63044322
0.30999592 0.49726123 0.63057214
0.32986397 0.49725336 0.63064945
0.3443006 0.49422106 0.62963265
-0.46601197 0.59784812 0.63700765
-0.45355749 0.59484929 0.63926685
-0.4626779 0.60079616 0.63898396
-0.42396423 1.0376052 0.62955344
-0.40885961 1.0366633 0.63194078
-0.39087272 1.0361615 0.63371569
-0.37430769 1.0374303 0.63442123
-0.44621736 1.0557637 0.62920344
-0.42938191 1.0508716 0.63218242
-0.40998963 1.0505638 0.63516033
-0.39001599 1.0499883 0.63729084
-0.37149361 1.0480236 0.63842934
-0.35144526 1.0488052 0.63808131
-0.33152327 1.0539739 0.63839394
-0.31452054 1.0554415 0.63800859
-0.4849079 1.0762826 0.62318683
-0.46895427 1.0722932 0.62658596
-0.4498837 1.0704578 0.63010645
-0.42988998 1.0698835 0.63291264
-0.40999177 1.0705034 0.63570982
-0.38984793 1.0697218 0.63845623
-0.37891272 1.0672308 0.63984615
-0.48625028 1.0894874 0.62254566
-0.46990862 1.0899729 0.62642097
-0.44973466 1.0902395 0.62984037
-0.43011045 1.0898832 0.63235086
-0.40994748 1.0902864 0.63488436
-0.39002582 1.0901703 0.6375975
-0.37321368 1.0943767 0.63928312
-0.35856545 1.0991038 0.63979274
-0.016309638 1.0888851 0.63541329
-0.48357645 1.1037322 0.62128687
-0.46877763 1.1086223 0.62429106
-0.44980848 1.1102527 0.6277855
-0.4299511 1.1100113 0.63042009
-0.41002414 1.1101203 0.63250905
-0.38999745 1.1103163 0.63403505
-0.37021762 1.1098179 0.63475192
-0.35053667 1.1074132 0.63561922
-0.33085811 1.1058922 0.63608515
-0.31072193 1.1064323 0.63648039
-0.29124486 1.1072741 0.6358797
-0.27140787 1.1077141 0.63558501
-0.25028875 1.1077114 0.6383695
-0.23598035 1.1070498 0.63567179
-0.20451047 1.1062479 0.63846815
-0.18910451 1.105203 0.63825899
-0.17159776 1.1033413 0.63877851
-0.15960665 1.1019242 0.63908929
-0.44786218 1.1215632 0.62314004
-0.42880493 1.1226201 0.62564272
-0.41043749 1.1226075 0.62704164
-0.39175859 1.1214334 0.6272518
-0.34304202 0.49065158 0.65048063
-0.32973567 0.49449399 0.65066868
-0.31001741 0.49482688 0.65113086
-0.28997645 0.49490783 0.65096581
-0.26993048 0.49499041 0.65112972
-0.24989316 0.49507308 0.65133661
-0.22986098 0.49515527 0.65142089
-0.21426648 0.4952195 0.65154523
0.2715275 0.49720061 0.65111995
0.29011464 0.49727464 0.65074182
0.31008735 0.49735615 0.65070045
0.32979327 0.49735937 0.65074575
0.34406444 0.4944908 0.64937735
-0.44714388 0.59679043 0.64094651
-0.43006635 0.59538335 0.64276588
-0.41022703 0.59554726 0.64485955
-0.39113393 0.5953427 0.64573646
-0.37356144 0.59697753 0.64641625
-0.35731244 0.59982026 0.64677137
-0.44861278 0.60214579 0.64177245
-0.42909846 0.6033718 0.64422834
-0.40960318 0.60463744 0.64659268
-0.38941866 0.60538304 0.64860249
-0.36991608 0.60789347 0.6503306
-0.35062405 0.6103611 0.6518321
-0.32997391 0.61378759 0.65432042
-0.31089726 0.61586493 0.6572575
-0.29078123 0.61377591 0.65870017
-0.32876691 0.62103915 0.65701818
-0.31103915 0.62244576 0.65917969
0.27713582 0.90834194 0.65881675
0.29153845 0.91226512 0.65395683
0.30303657 0.91673762 0.65214467
0.31216383 0.92265528 0.65740794
0.32819194 0.92829895 0.65863055
-0.23100251 0.99700588 0.65778232
-0.21086249 0.99005663 0.6570428
-0.19124174 0.98483175 0.65655988
-0.17135021 0.98190564 0.65718967
-0.10853886 0.98177105 0.65685451
-0.088568658 0.98408008 0.6562652
-0.069303326 0.9884004 0.65651029
-0.04856059 0.99389505 0.65550178
-0.26545241 1.0084885 0.65894133
-0.24655038 1.002601 0.65864593
-0.11949354 1.0184158 0.65699363
-0.18783613 1.0388633 0.65720135
-0.17190914 1.0340438 0.65834087
-0.15770203 1.0299356 0.6598857
-0.13097161 1.0209038 0.65713269
-0.36647043 1.056484 0.64046621
-0.35136828 1.0562234 0.64135295
-0.33169761 1.057279 0.64182508
-0.30954388 1.0586572 0.64375561
-0.29008678 1.0578905 0.64598477
-0.26953191 1.0573419 0.64961845
-0.24894182 1.0563388 0.65380216
-0.23094195 1.0533262 0.65647358
-0.211491 1.046926 0.65660954
-0.19674949 1.0425407 0.65793794
-0.36936221 1.0705661 0.64109784
-0.3497797 1.0700955 0.64340347
-0.33002031 1.0701759 0.64559329
-0.31008798 1.0701314 0.6479001
-0.28984487 1.0705279 0.65100044
-0.26984093 1.0703899 0.65461981
-0.25303712 1.0697498 0.65815473
-0.23826922 1.060547 0.65965164
-0.3675544 1.0872031 0.64099997
-0.34993511 1.0899904 0.64257395
-0.33005649 1.0906559 0.64460576
-0.31008768 1.089981 0.64694613
-0.28978598 1.0902736 0.64959067
-0.27015322 1.0901903 0.65252024
-0.25035468 1.0906258 0.65578341
-0.23137274 1.0945079 0.65709525
-0.21166159 1.0971445 0.65827614
-0.18995224 1.0988854 0.65904844
-0.1698785 1.0996089 0.65899521
-0.14886178 1.0993133 0.65856785
-0.12925099 1.0990177 0.65385926
-0.11029836 1.0981988 0.65330988
-0.089620672 1.0967965 0.65200543
-0.06983602 1.0951459 0.65209085
-0.050419524 1.0937216 0.65307677
-0.029542957 1.092466 0.65399039
-0.009553453 1.0914518 0.65440685
0.0092143007 1.0906545 0.65416795
0.030309889 1.0892179 0.65385842
0.049018316 1.0865432 0.65468913
0.068608209 1.0838737 0.65592676
-0.34523225 1.100709 0.64020824
-0.32856402 1.1014615 0.64076161
-0.30830792 1.1022309 0.64227712
-0.2894479 1.1033603 0.64343745
-0.26982588 1.1039251 0.64507025
-0.25010869 1.1039382 0.64705199
-0.22989485 1.1042335 0.64833599
-0.21031582 1.1037859 0.65052533
-0.19014873 1.1035433 0.65201122
-0.17030177 1.102597 0.65185887
-0.15065056 1.1012385 0.65180343
-0.13766745 1.1002626 0.65081722
-0.34309033 0.49068633 0.66965175
-0.3299906 0.49455273 0.67034662
-0.30998746 0.49491796 0.67054701
-0.28995228 0.49500021 0.67066753
-0.26992226 0.49508226 0.67070907
-0.25003949 0.49516368 0.67078942
-0.23016065 0.49524525 0.67086983
-0.21267872 0.49531969 0.67153281
0.25821903 0.49725085 0.67340052
0.27011108 0.49728408 0.67014545
0.29007384 0.49736577 0.6701864
0.30988425 0.49744764 0.67038661
0.32973069 0.4974508 0.67034954
0.34436035 0.49443495 0.6694268
-0.28905562 0.61802399 0.66090626
-0.2695916 0.61631519 0.66240907
-0.25086388 0.61653185 0.66483837
-0.23040159 0.61601567 0.66712677
-0.21038315 0.61825579 0.67117029
-0.19070323 0.61556596 0.67091417
-0.17020953 0.61759275 0.67326343
-0.14994115 0.61912721 0.67504221
-0.30431229 0.62580264 0.66063464
-0.28909996 0.62711757 0.66279262
-0.26960078 0.63007343 0.66601133
-0.25021482 0.63062757 0.66929328
-0.23032737 0.63077295 0.67273462
-0.21057709 0.63049364 0.67609638
-0.1910641 0.62580258 0.67721421
-0.17189211 0.62546092 0.67848885
-0.15645458 0.62545002 0.67953974
-0.13059741 0.62125939 0.67751384
-0.11987502 0.62315005 0.67970562
-0.26235747 0.64036292 0.6684401
-0.24851456 0.64288568 0.67110395
-0.22954623 0.64598179 0.67486501
-0.21151127 0.64940846 0.6782549
-0.19718136 0.65826923 0.67953533
-0.54252338 0.8407858 0.66923159
-0.53126758 0.84235197 0.67469943
-0.51177961 0.84392804 0.67714268
-0.49146882 0.84527981 0.67894107
0.27550393 0.91152447 0.67212009
0.28754938 0.91661763 0.66981477
0.29627386 0.9218294 0.67518026
0.30966279 0.92611194 0.67093837
0.32955685 0.9327932 0.67134237
0.34893021 0.93720716 0.67121851
0.37976015 0.93644202 0.66071492
0.3848184 0.9378559 0.66378361
0.40922841 0.93693322 0.66943431
0.43853354 0.92862606 0.67630291
0.357373 0.94086367 0.67790711
0.36870316 0.94150382 0.67575783
0.38624269 0.94288677 0.67849326
0.40253207 0.94118601 0.67859936
-0.22452028 0.99828434 0.66975802
-0.20985943 0.99384922 0.67177606
-0.18981065 0.98854095 0.67231476
-0.17000189 0.98555058 0.6724084
-0.15017287 0.98373044 0.66998881
-0.13021341 0.98398376 0.67072064
-0.11037122 0.98539919 0.67247057
-0.089572974 0.98801333 0.67260218
-0.069939129 0.99247801 0.67299867
-0.054060418 0.99713773 0.67273796
-0.30081794 1.0167375 0.6613611
-0.28507349 1.0182884 0.67413867
-0.2686978 1.0144511 0.67407602
-0.24983148 1.0080342 0.67271626
-0.23301351 1.0025891 0.67449212
-0.10553326 1.0183938 0.66368735
-0.090444498 1.0182805 0.66799897
-0.069909915 1.0172619 0.67145526
-0.049322587 1.0142086 0.67516398
-0.032543395 1.0101784 0.67566174
-0.46487132 1.0251085 0.67563456
-0.45044193 1.0260602 0.67828387
-0.40728799 1.026751 0.67578053
-0.39234066 1.0265484 0.67521286
-0.36334532 1.0264953 0.67949319
-0.34975025 1.0258248 0.67762578
-0.32912967 1.0247296 0.67738819
-0.3095724 1.0230622 0.676579
-0.29495576 1.0208702 0.67664528
-0.18121731 1.0390677 0.66096824
-0.16775236 1.0372449 0.6642071
-0.14861773 1.0345038 0.66781569
-0.12941468 1.0322742 0.67087114
-0.10987248 1.0310471 0.67397672
-0.091228649 1.0292523 0.67668927
-0.071208417 1.0231054 0.67709386
-0.055420306 1.0211794 0.67906767
-0.22536059 1.057537 0.6614992
-0.20888762 1.0545727 0.66436779
-0.18915601 1.0517287 0.66766292
-0.16996787 1.050451 0.67100149
-0.1500262 1.0505092 0.67411089
-0.13012195 1.0502843 0.67662144
-0.11034736 1.0500351 0.67890334
-0.097361885 1.041561 0.67961562
-0.24364436 1.0721737 0.66077363
-0.22980087 1.0706878 0.66360193
-0.20966303 1.0704485 0.66783756
-0.18987218 1.0701952 0.67106956
-0.16986994 1.0700058 0.67290229
-0.1500071 1.0704637 0.6745553
-0.13001738 1.070152 0.67628127
-0.11008321 1.0697207 0.67781425
-0.091360457 1.0730017 0.6786648
-0.07412637 1.0782743 0.6791659
0.13265315 1.0792036 0.67371714
0.15007783 1.0739994 0.67636544
0.16802019 1.066123 0.67768514
-0.24196318 1.0817595 0.66032094
-0.22835861 1.0849669 0.66188568
-0.20985265 1.08776 0.66370189
-0.18982852 1.0888058 0.66555214
-0.16965593 1.0897677 0.6662873
-0.15018857 1.0900081 0.66728711
-0.12992261 1.0891173 0.66902316
-0.10996334 1.0893291 0.66978538
-0.090137966 1.0891891 0.67107004
-0.069985211 1.0885503 0.67250085
-0.050539318 1.0881416 0.67326641
-0.029935747 1.0885894 0.67234635
-0.010108816 1.0880791 0.67206764
0.010046937 1.0875057 0.67151988
0.029773176 1.08692 0.67135572
0.049334675 1.0859892 0.6716007
0.069416381 1.0848612 0.67243195
0.089136899 1.0840193 0.67309618
0.10661841 1.0834409 0.67507941
0.12461096 1.081714 0.67724478
-0.3449946 0.25596246 0.69882458
0.34931347 0.25457177 0.69779366
-0.34471461 0.26753795 0.69909531
0.34894127 0.27168149 0.69801736
-0.34487534 0.29162797 0.69891995
0.34829512 0.28999665 0.69850588
-0.34460929 0.31255126 0.69917077
0.34857854 0.30919543 0.69805199
-0.34462616 0.33172297 0.69914168
0.34832278 0.32887226 0.69813603
-0.34484935 0.35186231 0.69890666
0.34799293 0.34954646 0.6982857
-0.34475973 0.36975503 0.69898438
0.34829056 0.36911693 0.69781423
-0.34500104 0.39118987 0.69873047
0.34817821 0.39032942 0.6977405
-0.34458995 0.41135529 0.69912654
0.34755173 0.41028884 0.69819486
-0.34520757 0.42826089 0.69850129
0.34783873 0.43031272 0.69772995
-0.3450532 0.44958511 0.69864136
0.34751055 0.44971642 0.69788927
-0.3450543 0.46959645 0.69862759
0.34734586 0.47012955 0.6978752
-0.3431032 0.48884523 0.69166547
-0.32997245 0.49351299 0.69116616
-0.31005099 0.49391812 0.69113976
-0.29008332 0.49397516 0.69116509
-0.27011845 0.49402463 0.69127113
-0.24993964 0.49403849 0.69142705
-0.22986983 0.49414265 0.6913262
-0.21023494 0.49417028 0.69156432
-0.19794051 0.49273315 0.69715416
0.0027053417 0.49476588 0.6945911
0.25521782 0.4952369 0.69264919
0.27003586 0.49563408 0.69143003
0.28993392 0.49569559 0.69147658
0.30982852 0.49573764 0.69153017
0.32963872 0.49574876 0.69154078
0.3443954 0.49148035 0.69238031
-0.20119837 0.63815522 0.68022025
-0.18970373 0.63608927 0.6813454
-0.16916242 0.63442636 0.68239129
-0.15000924 0.63328725 0.68322659
-0.12998526 0.63347924 0.68466663
-0.11073013 0.63272911 0.68554902
-0.090155587 0.63338041 0.68723619
-0.07122086 0.63550109 0.68936849
-0.052053109 0.63886893 0.69235986
-0.20312718 0.64618051 0.68067205
-0.18960525 0.6503976 0.68211597
-0.17009911 0.65048313 0.68404841
-0.14974621 0.65050483 0.68595135
-0.1300777 0.65067691 0.68777299
-0.10997509 0.65025353 0.68932092
-0.089937292 0.65039212 0.69094896
-0.069935784 0.65050745 0.69355911
-0.050548844 0.65101677 0.69629687
-0.034007665 0.64944857 0.69838166
-0.18406047 0.6604622 0.68125361
-0.16819043 0.66235894 0.68288898
-0.14982665 0.66348475 0.68512034
-0.13031472 0.66380286 0.68732339
-0.10958555 0.66340876 0.68931496
-0.0909952 0.66269368 0.69132298
-0.071341492 0.66179252 0.69445026
-0.054001197 0.66087955 0.69739527
-0.52699375 0.84399462 0.68936324
-0.50951743 0.84505302 0.69031912
-0.49041855 0.8462007 0.69086152
-0.47006798 0.84729779 0.69058788
-0.45029962 0.84829503 0.69119626
-0.43015283 0.84920031 0.69236153
-0.41130286 0.84994537 0.69320494
-0.39544693 0.8533203 0.69775653
0.27283946 0.9130134 0.69144064
0.28443947 0.91803318 0.69031733
0.45283329 0.9184323 0.69712198
0.29440019 0.9224484 0.69071817
0.30961075 0.92895913 0.69090587
0.32974249 0.93591404 0.69078732
0.34329724 0.93931812 0.69030356
0.41851038 0.93938446 0.69107324
0.42913607 0.93522573 0.69537455
0.44797689 0.92297912 0.69647366
0.35291114 0.94133049 0.69182229
0.3697491 0.94361001 0.69131917
0.38936001 0.94415665 0.69250113
0.40873834 0.94180459 0.69242698
0.21680436 0.9688459 0.69811332
-0.22126459 0.99959797 0.68947047
-0.21024027 0.99602336 0.69096011
-0.1903455 0.99044418 0.69070131
-0.16969287 0.98748976 0.69085991
-0.15000701 0.98606318 0.6903494
-0.130051 0.98623121 0.69021732
-0.11010318 0.98746568 0.69120759
-0.090548486 0.99000204 0.69087619
-0.070395276 0.9945671 0.6907388
-0.057171166 0.99880141 0.68985689
0.21125765 0.99083847 0.69546801
-0.28278527 1.0194472 0.69117665
-0.26974362 1.0162737 0.69135261
-0.24980406 1.0099301 0.69109362
-0.23087622 1.0032545 0.69108635
-0.046826623 1.0038882 0.69115317
-0.028989926 1.0131159 0.68772674
-0.015515122 1.0175048 0.69148153
0.20563802 1.0128727 0.69530004
-0.48124659 1.0267532 0.68459922
-0.46927741 1.0273122 0.69242895
-0.4498091 1.0279906 0.694399
-0.43048504 1.0284772 0.69217294
-0.41038761 1.0291083 0.69312668
-0.39016423 1.0287485 0.6920231
-0.3703225 1.0280044 0.69133836
-0.34997341 1.0271991 0.69233799
-0.33033353 1.0258358 0.69130903
-0.31035072 1.0239263 0.69102389
-0.29226816 1.0217071 0.69184226
-0.084597431 1.0366862 0.68085742
-0.069409311 1.033173 0.68283701
-0.049781557 1.0308957 0.6858263
-0.029633895 1.0307782 0.69059658
-0.010101878 1.030404 0.6961937
0.00090075721 1.028321 0.6993674
0.19675133 1.0341156 0.69509232
0.2016449 1.0233523 0.6950649
-0.10135122 1.0505638 0.68006545
-0.089733213 1.0507003 0.68129444
-0.069798537 1.0502471 0.68462551
-0.050000973 1.0501761 0.68828988
-0.029874211 1.0502315 0.6926173
-0.010285242 1.0506927 0.69694424
0.0041553583 1.0569718 0.69908094
0.17908798 1.0590086 0.69561279
0.18685682 1.050649 0.69446754
-0.08655332 1.0645585 0.68063068
-0.069734216 1.0686679 0.68216741
-0.04996996 1.07012 0.68448865
-0.029941343 1.0702243 0.687527
-0.010417254 1.0705342 0.69004476
0.009875725 1.070089 0.69273871
0.029464928 1.0727338 0.69391191
0.049570307 1.0757692 0.6945048
0.069906533 1.077186 0.69585109
0.089058548 1.0784976 0.69677085
0.10220475 1.0794749 0.69834685
0.13897476 1.0796646 0.69035631
0.14944029 1.076375 0.69383878
0.16925947 1.0663731 0.69421613
-0.047147118 1.0807887 0.68044001
-0.029762659 1.0821198 0.68119979
-0.0095747719 1.082018 0.68206269
0.0099601801 1.0817672 0.68252033
0.030382534 1.081973 0.68322533
0.050640352 1.0820829 0.6847043
0.069722146 1.0820678 0.68591481
0.090245001 1.0821724 0.68759608
0.10949126 1.0823879 0.68993944
0.12851036 1.0818369 0.69214755
-0.34239978 0.25438359 0.70140541
-0.3309097 0.25821996 0.70521772
-0.31030163 0.2585198 0.7056855
-0.290737 0.25845802 0.70563996
-0.27008301 0.25839257 0.70559168
-0.24942653 0.25832707 0.70554334
-0.22985485 0.25826493 0.7054975
-0.21028087 0.25820282 0.70545167
-0.19070451 0.25814098 0.70540601
-0.170038 0.25807595 0.70535815
-0.15807217 0.25803822 0.70533025
0.073801383 0.25730476 0.70478922
0.083605923 0.25727379 0.70476651
0.25255284 0.25674066 0.70437318
0.27000234 0.2566855 0.70433247
0.29104763 0.25819665 0.70427608
0.31014469 0.25823504 0.7042312
0.32978362 0.25812605 0.7041508
0.34401104 0.2559337 0.70200568
-0.34187537 0.27019921 0.70191735
-0.32965592 0.27020377 0.70534593
-0.31005993 0.27014726 0.70563036
-0.29004762 0.27023354 0.70558304
-0.27003664 0.27020255 0.70553607
-0.2500205 0.26975179 0.70549107
-0.23000233 0.26989633 0.70544314
-0.20998539 0.26998228 0.70539558
-0.18996577 0.26995158 0.70534879
-0.17011096 0.26958805 0.70530432
-0.15824123 0.27045822 0.70527244
0.07394775 0.26852277 0.70473623
0.082613505 0.26799867 0.70471841
0.25341329 0.26866257 0.70431501
0.27005023 0.27012351 0.70426917
0.28984678 0.27141792 0.70421666
0.31005111 0.27146846 0.70416903
0.32976034 0.27145183 0.70408863
0.34297195 0.27026835 0.70245874
-0.34203911 0.29149172 0.70174092
-0.32980698 0.29008374 0.70522892
-0.30983159 0.28980759 0.7055375
-0.28998303 0.2898927 0.70549029
-0.27013579 0.29003468 0.70544297
-0.25010672 0.28950664 0.70539826
-0.23007543 0.28967884 0.70535022
-0.21004756 0.28984982 0.7053023
-0.18999942 0.2893219 0.70525777
-0.16996668 0.2894946 0.70521015
-0.15779923 0.28945711 0.70518208
0.075465694 0.28804091 0.70464087
0.080707416 0.2875559 0.70463085
0.25502923 0.28925747 0.70421427
0.27004117 0.29152706 0.7041685
0.28992873 0.2913202 0.70412272
0.30999944 0.29120204 0.70407629
0.3300885 0.29124895 0.7039777
0.34317568 0.28898248 0.70232302
-0.34188029 0.30957302 0.7018649
-0.32975388 0.30970567 0.70516789
-0.30995888 0.30926311 0.7054463
-0.28991923 0.30928788 0.70539898
-0.27005666 0.30945665 0.70535129
-0.25001395 0.30891347 0.70530659
-0.22997122 0.30922142 0.70525801
-0.2101004 0.30904603 0.70521206
-0.19004786 0.30890226 0.70516568
-0.17000766 0.30915555 0.705118
-0.15793201 0.30889025 0.70509094
0.077345476 0.30677345 0.70454836
0.25592494 0.31064767 0.70411146
0.26996166 0.31092978 0.70407736
0.28986582 0.31064108 0.704032
0.30994517 0.31077921 0.70398426
0.32987171 0.31060869 0.70389467
0.34322524 0.3097021 0.70211279
-0.34168899 0.32746235 0.70206642
-0.3294315 0.33003458 0.70510894
-0.30996937 0.33002979 0.70534843
-0.29009193 0.32997102 0.70530182
-0.27019611 0.33005616 0.70525455
-0.25015861 0.32971138 0.70520908
-0.22996165 0.33007613 0.7051599
-0.20991392 0.32944724 0.70511562
-0.18987031 0.32995817 0.70506638
-0.16995981 0.32937396 0.70502263
-0.15789604 0.3293722 0.7049945
0.2545526 0.33020452 0.70402312
0.27005982 0.32998845 0.7039879
0.29015458 0.32976249 0.70394182
0.31007057 0.3299005 0.70389467
0.32983997 0.32983643 0.70379943
0.34278843 0.33001894 0.70219636
-0.34186575 0.34770313 0.70185596
-0.32991385 0.3504146 0.70495081
-0.30996582 0.35036063 0.70525247
-0.29010314 0.35030237 0.70520592
-0.27006394 0.35032684 0.70515871
-0.25002205 0.35007975 0.70511264
-0.22998229 0.35037377 0.7050643
-0.20992799 0.34985751 0.70501965
-0.19006482 0.35023537 0.70497137
-0.17000195 0.34982523 0.70492643
-0.15747851 0.35051572 0.70489401
0.25395295 0.35020584 0.70393109
0.26997516 0.35023624 0.70389342
0.29004189 0.350223 0.7038464
0.30996588 0.3500731 0.70380038
0.32960892 0.35015035 0.70370984
0.34280515 0.34958056 0.7021004
-0.34185287 0.36982027 0.70185232
-0.32965937 0.37039438 0.70492542
-0.31010786 0.37028646 0.70515847
-0.28982154 0.3703177 0.70511073
-0.26998156 0.37021795 0.70506471
-0.25013787 0.37011638 0.70501882
-0.22999483 0.37023908 0.70497108
-0.2099981 0.36995825 0.70492572
-0.18999812 0.36994696 0.70487893
-0.17000452 0.37020901 0.70483094
-0.15767263 0.36894742 0.704808
0.078160651 0.37399971 0.70709676
0.25378427 0.37026846 0.70383692
0.26989225 0.37014312 0.70379955
0.28981012 0.37027138 0.7037521
0.30990916 0.37000439 0.70370615
0.32985339 0.3700664 0.70360297
0.34286696 0.36999676 0.7019065
-0.34146345 0.38954592 0.70218241
-0.33002216 0.39015952 0.70479196
-0.30997363 0.38999307 0.70506573
-0.28993633 0.39011919 0.70501828
-0.27007258 0.38965151 0.704974
-0.25002953 0.38977706 0.70492655
-0.22998793 0.3898505 0.70487934
-0.20994468 0.38981912 0.70483255
-0.18988694 0.38943017 0.70478755
-0.17001322 0.38958129 0.70474029
-0.1573002 0.3918277 0.70469975
0.074028723 0.39260006 0.70760095
0.25386491 0.38990316 0.70374358
0.27005848 0.38972601 0.70370626
0.28992528 0.38989341 0.70365894
0.30994725 0.38979128 0.70361215
0.32985342 0.38962883 0.70351219
0.34284106 0.39028266 0.70186079
-0.34161562 0.41007322 0.70203191
-0.32949242 0.40958804 0.70474595
-0.30993927 0.40922093 0.70497608
-0.29015169 0.40925407 0.70492953
-0.27020851 0.40911359 0.7048834
-0.25011826 0.40910146 0.70483601
-0.23002692 0.40908951 0.70478868
-0.21008125 0.40920931 0.704741
-0.1899845 0.40893811 0.70469505
-0.16987959 0.40866762 0.70464939
-0.15763347 0.41116625 0.70460892
0.057762958 0.41730195 0.71050423
0.06829223 0.41082889 0.70682812
0.25372943 0.41068223 0.70364618
0.27006346 0.4106375 0.70360792
0.29019281 0.41054061 0.70356137
0.31017882 0.41057301 0.7035141
0.3298929 0.4104068 0.7034086
0.34263137 0.4097158 0.70179409
-0.34181219 0.42981875 0.7018016
-0.32977059 0.42972478 0.70464408
-0.31016815 0.42964366 0.70488089
-0.29011998 0.42963225 0.70483351
-0.27007121 0.42957854 0.7047863
-0.25001988 0.42952535 0.70473939
-0.22996634 0.42951369 0.70469189
-0.21005574 0.42950273 0.70464498
-0.19014381 0.42949221 0.70459831
-0.17008138 0.42931345 0.70455247
-0.15735021 0.42831632 0.7045275
-0.015944658 0.43966416 0.71107894
0.018770913 0.43996936 0.71008861
0.030578544 0.43623459 0.71101308
0.049847953 0.42878553 0.70778489
0.068182044 0.42988276 0.70399159
0.25374183 0.43101776 0.70355111
0.26992622 0.43108368 0.70351273
0.29001737 0.43098891 0.70346606
0.31011009 0.43093565 0.70341897
0.32995051 0.43088943 0.70330274
0.34265491 0.42916304 0.70168561
-0.34166539 0.45067459 0.70191818
-0.32963994 0.44974124 0.70456231
-0.30981538 0.44973871 0.70478547
-0.28980607 0.44968662 0.70473844
-0.26993659 0.44967592 0.70469159
-0.25006643 0.44958317 0.7046451
-0.23004989 0.44953111 0.70459825
-0.21003096 0.44947916 0.70455128
-0.19032913 0.44904739 0.70450693
-0.17051214 0.44635898 0.70447338
-0.1574437 0.44603404 0.70444447
-0.0086363377 0.4460555 0.70746326
0.0096466867 0.44579682 0.70791835
0.02981038 0.44885904 0.70399183
0.049860571 0.44880813 0.70394582
0.066905096 0.44876415 0.70390606
0.25361195 0.45092809 0.70345777
0.26993737 0.45107904 0.70341861
0.28984469 0.45110974 0.70337152
0.30975938 0.45097607 0.70332533
0.32969922 0.45089656 0.70321643
0.34257489 0.44957739 0.7015835
-0.3415657 0.46995589 0.70194417
-0.32981974 0.46952 0.70446748
-0.3100377 0.46951488 0.7046929
-0.28992361 0.46950272 0.70464569
-0.26994845 0.46933445 0.70459926
-0.24997133 0.46920514 0.70455283
-0.22999001 0.46923289 0.70450556
-0.21000707 0.46914297 0.70445883
-0.19540974 0.4679361 0.70443016
-0.0092495289 0.46655694 0.704
0.010035329 0.46811995 0.70394784
0.029729767 0.46971831 0.70389491
0.049382709 0.46991858 0.703848
0.065820567 0.46944815 0.70381176
0.25376558 0.4706758 0.70336413
0.27008855 0.47075915 0.70332533
0.29010296 0.47078699 0.70327812
0.31012449 0.47065806 0.70323157
0.3298963 0.47064984 0.70311123
0.34240448 0.46961385 0.70158005
-0.34133464 0.48378432 0.70118904
-0.32927567 0.48534849 0.7026574
-0.31005269 0.48548332 0.70278376
-0.29032335 0.48547554 0.70277601
-0.27059379 0.48546785 0.70276904
-0.25051937 0.4853307 0.70280731
-0.22983378 0.48557532 0.70270735
-0.20943139 0.48543698 0.7027396
-0.19738203 0.48503193 0.70285851
0.053061392 0.48221481 0.70360422
0.066735327 0.48281291 0.70342356
0.25389919 0.48601767 0.70222521
0.27011207 0.48620152 0.70215452
0.28985387 0.48618305 0.70213699
0.30959651 0.48616439 0.70211953
0.32935759 0.48610294 0.70206141
0.34138265 0.48506045 0.70108056
-0.027006621 0.65399224 0.70094061
-0.01573565 0.65311098 0.70279408
0.24701437 0.82073027 0.71831554
-0.5227204 0.84400409 0.70540315
-0.5100292 0.84402162 0.71091563
-0.48985413 0.84537411 0.71036851
-0.47011745 0.8462441 0.71144199
-0.45011953 0.84707659 0.71049327
-0.42987895 0.84774166 0.71073055
-0.40966952 0.84836578 0.71103674
-0.38971794 0.85082543 0.71091539
-0.37336311 0.85376287 0.7146579
-0.36550531 0.86113781 0.71877402
0.25815007 0.90668541 0.71581334
0.27017406 0.91216147 0.71029294
0.28416675 0.91821682 0.71036732
0.45065951 0.91856223 0.70893425
0.29433721 0.92226118 0.70983416
0.30990177 0.92873007 0.71022058
0.33008385 0.9355455 0.71012926
0.34515312 0.93917269 0.71163523
0.4137837 0.93862396 0.71172345
0.43004394 0.93288136 0.71054292
0.44302851 0.92527062 0.71307713
0.35451362 0.94092488 0.7090683
0.36978364 0.94256371 0.71037155
0.38984981 0.94259059 0.71065468
0.40488461 0.94111192 0.70811188
0.21168374 0.97364056 0.71267986
-0.22286923 0.9992125 0.7110467
-0.20998333 0.99544787 0.71005589
-0.18988876 0.99037766 0.71010613
-0.17049412 0.9877106 0.71017146
-0.14986144 0.98644459 0.7101903
-0.13010412 0.98671061 0.70906067
-0.11002153 0.98786825 0.70999473
-0.090024486 0.99098694 0.7100758
-0.070509523 0.99600774 0.71001911
-0.058935475 0.99946535 0.70268011
0.20718034 0.98885036 0.71313083
-0.28700554 1.0184051 0.71169484
-0.26987875 1.0142937 0.71013433
-0.25001535 1.0084432 0.70992368
-0.23263852 1.0026836 0.7093721
-0.060112853 1.0005833 0.71909344
-0.049700812 1.0037093 0.71040016
-0.030063862 1.0119433 0.71009141
-0.016212581 1.0181692 0.70819771
0.19835235 1.0174568 0.71588552
0.20266007 1.0090361 0.71156859
-0.4658339 1.0250471 0.70860636
-0.44999263 1.0254016 0.71065927
-0.4300867 1.0263847 0.70971686
-0.41026086 1.0274224 0.71021557
-0.39015126 1.0278239 0.71071309
-0.36987656 1.0271157 0.71062577
-0.34961137 1.0258465 0.71086925
-0.32976165 1.0243908 0.71059179
-0.30975333 1.022606 0.71079361
-0.29560778 1.0209619 0.70727181
-0.006403916 1.0238392 0.71053076
0.009197453 1.0334349 0.70671946
0.024172748 1.0379685 0.71242821
0.19354056 1.0308294 0.71249104
0.20063257 1.0206723 0.70422924
-0.0016664308 1.0436321 0.70042539
0.011066073 1.0492688 0.70280892
0.030162062 1.0503007 0.70853144
0.04847933 1.0540967 0.71317732
0.063509926 1.0583334 0.71582186
0.17556542 1.0559039 0.71356463
0.18485652 1.0466548 0.71054721
0.019337995 1.0612103 0.70010662
0.032533158 1.0631424 0.70220023
0.050815117 1.0658906 0.70530689
0.070137851 1.0677381 0.70832479
0.089182906 1.0728418 0.70916778
0.10863876 1.078021 0.71250618
0.13104531 1.0782187 0.71335435
0.14995092 1.0731413 0.71059805
0.16648135 1.0642778 0.70959181
0.11441474 1.0808754 0.70447665
0.12689796 1.0809371 0.70489717
0.074877381 0.37981921 0.7277115
0.070395917 0.39166126 0.73147345
0.051052418 0.40891549 0.73002088
0.063650474 0.40533894 0.72891212
-0.0089758411 0.43816811 0.73270905
0.01073021 0.43807584 0.73378962
0.029375119 0.4340319 0.73022717
0.0461355 0.42515111 0.72616959
-0.0056092087 0.4409034 0.72429556
0.0077143162 0.44095811 0.72447824
0.22453494 0.79713631 0.72446364
0.22549632 0.81244558 0.73039073
-0.50705254 0.83682835 0.73368907
-0.49053675 0.83710027 0.73524141
-0.46994889 0.83772057 0.73574644
-0.4498603 0.83796322 0.73617244
-0.43060803 0.8377732 0.73630607
-0.41005462 0.8378244 0.73739207
-0.38995492 0.83774358 0.7372362
-0.37496352 0.83838528 0.73727983
0.21939327 0.83031738 0.73863918
0.22837412 0.83116579 0.73633367
0.24773104 0.83177584 0.73392558
-0.50834185 0.84116435 0.72440439
-0.4892064 0.84194672 0.72545058
-0.46995354 0.84239751 0.72650445
-0.44954497 0.84297425 0.72659093
-0.429692 0.84321773 0.72712469
-0.41011864 0.84314048 0.72788459
-0.38985482 0.84361434 0.72732323
-0.36915231 0.84613043 0.728396
-0.35251111 0.85113603 0.73425311
0.21894123 0.84615773 0.73962682
0.22698931 0.84275842 0.73955595
0.24329422 0.84160143 0.7388562
-0.48806787 0.87834704 0.73237431
-0.38106516 0.87467194 0.72919554
-0.36800966 0.87696254 0.73681915
-0.35099274 0.86464673 0.73365229
0.2143601 0.87150401 0.73975205
0.22823624 0.87684238 0.73953623
0.24287708 0.87865239 0.73958874
-0.48271501 0.88104033 0.73699856
-0.47970825 0.88234544 0.73923928
-0.38379171 0.88272697 0.73989278
-0.37997428 0.88265389 0.73976719
0.2332478 0.88336867 0.73724586
0.2472091 0.88905305 0.73433375
0.45812815 0.8980279 0.73859525
0.25624719 0.90329111 0.73045045
0.26981816 0.91070998 0.73059493
0.28548929 0.91775578 0.7315433
0.43818244 0.91947252 0.73955637
0.44817117 0.91388124 0.73265648
0.29504815 0.92191982 0.72954655
0.30996829 0.92750955 0.73068404
0.33015919 0.93353939 0.73065734
0.34959605 0.93727344 0.73128945
0.36944771 0.93802279 0.73537683
0.39035249 0.93786883 0.73430991
0.41009519 0.93534631 0.73092079
0.42996317 0.92770064 0.73049259
0.44209146 0.92240208 0.72652519
0.35829374 0.94034088 0.72262102
0.3704581 0.94102168 0.72573668
0.38903254 0.94091648 0.72503036
0.40056497 0.94001424 0.722947
0.20529063 0.97751701 0.72415602
-0.22530887 0.99858505 0.732472
-0.21021923 0.99470299 0.73063779
-0.19006433 0.98996729 0.73054773
-0.16965456 0.98704839 0.73096132
-0.15045576 0.98585027 0.73066264
-0.12997448 0.98638761 0.73074669
-0.11005001 0.98774064 0.73064411
-0.089996062 0.99139613 0.73086303
-0.071107149 0.99680251 0.73130625
0.19481601 0.99192661 0.73437572
0.20216401 0.98875469 0.72535139
-0.46113402 1.0193639 0.72996455
-0.45079407 1.0182575 0.73545802
-0.43169919 1.0190116 0.73727918
-0.41241437 1.0196553 0.73939699
-0.38140982 1.0198784 0.73995745
-0.37019518 1.0197134 0.73954183
-0.3476941 1.0191544 0.73799545
-0.32896194 1.0186344 0.73611891
-0.30927494 1.0180124 0.73290092
-0.29012176 1.0158694 0.7304278
-0.27007744 1.0115796 0.73067087
-0.24989052 1.0061792 0.73065412
-0.23464344 1.0017248 0.72981769
-0.061462693 1.0005038 0.731103
-0.049836893 1.0048517 0.73089051
-0.029836465 1.0128239 0.73093271
-0.016320638 1.0183802 0.73140091
0.19107771 1.0109135 0.7323491
0.20042194 1.0040822 0.72184783
-0.46231705 1.0216711 0.72374225
-0.44968206 1.0219218 0.72622573
-0.42954817 1.0225025 0.72790343
-0.4097468 1.0232258 0.72945088
-0.38999459 1.0236298 0.72995204
-0.37019867 1.0230736 0.73003554
-0.35067248 1.0222954 0.72859812
-0.33091158 1.0214708 0.72629046
-0.31251827 1.0207568 0.72296715
-0.0064995619 1.0227858 0.72966653
0.0097567234 1.0296088 0.73069161
0.026863081 1.0369016 0.73151189
0.17574774 1.0338945 0.73658454
0.18519081 1.0290333 0.72959214
0.036113661 1.041741 0.7285977
0.050241906 1.0479717 0.73041892
0.068378285 1.0561125 0.73157603
0.081274919 1.0597281 0.73821282
0.15459119 1.0563034 0.73590362
0.16904403 1.049632 0.73000532
0.18165223 1.0421102 0.72294337
0.076126359 1.0619375 0.72597712
0.090389945 1.06653 0.73055595
0.11024232 1.0714862 0.73083073
0.13030893 1.0706491 0.73095238
0.14822938 1.0658569 0.72892594
0.16182502 1.0614872 0.722399
0.06687329 0.35919482 0.75680572
0.06881164 0.37233371 0.75050652
0.059225462 0.39785093 0.7567783
0.065096222 0.3900744 0.74938655
0.039650187 0.41921371 0.75831836
0.050208312 0.40595636 0.7498849
0.06098529 0.40209806 0.74479115
-0.0067003057 0.43322062 0.74964803
0.0092859678 0.43317637 0.75000989
0.029357959 0.4276188 0.75011051
0.040020421 0.42024061 0.7461645
0.33618584 0.79734129 0.75320822
0.35038784 0.79640228 0.75344872
0.37019145 0.79513675 0.75353271
0.38823509 0.79633069 0.75455147
0.40255275 0.79791576 0.75401598
-0.50261116 0.81929064 0.75966758
-0.49846274 0.81948817 0.75995547
-0.40374509 0.8194555 0.75990629
-0.39441103 0.81927884 0.75964874
0.27907711 0.81477779 0.7516613
0.29194608 0.80933195 0.75234699
0.31055748 0.80433112 0.75663108
0.33202988 0.80266368 0.75795311
0.35039467 0.8021872 0.75856632
0.361963 0.80187839 0.75959486
0.4116179 0.80369985 0.75804281
0.43129945 0.81209511 0.75757319
-0.5044024 0.82793748 0.74891931
-0.48984042 0.82777232 0.75075006
-0.46996373 0.82838434 0.7506212
-0.44987577 0.82853341 0.75077116
-0.42996454 0.82837456 0.75042671
-0.41006872 0.82807612 0.75037611
-0.39017189 0.82810056 0.7500056
-0.37003365 0.83021182 0.7503143
-0.35106769 0.83381778 0.75276631
-0.33585131 0.8370291 0.75724769
0.25304261 0.83247256 0.75158334
0.26793087 0.82321763 0.75639737
-0.36133668 0.84059656 0.74024725
-0.34696165 0.8443312 0.74357212
-0.33052945 0.84941846 0.75166428
-0.31749466 0.85356539 0.75831318
0.21642245 0.85643351 0.74043077
0.2304769 0.85266769 0.74119562
0.24631359 0.85100847 0.74473435
-0.36471638 0.87964672 0.74077976
-0.34460446 0.87225544 0.74474555
-0.32964376 0.86860758 0.75176817
-0.3174282 0.86522526 0.7580089
0.21528009 0.8649807 0.7402885
0.23090854 0.86756742 0.74123532
0.24552576 0.87005943 0.74388939
-0.48241931 0.89523524 0.7562598
-0.46951762 0.89301741 0.75390416
-0.4495492 0.89239073 0.75340074
-0.43006128 0.89291489 0.75292867
-0.41006979 0.89161885 0.75063574
-0.39136451 0.89119232 0.7495659
-0.37141845 0.89128584 0.75208396
-0.35001066 0.88552612 0.75408822
-0.33383903 0.88141531 0.75735503
0.25341985 0.89189631 0.75122291
0.26473442 0.8976658 0.75635666
0.45507064 0.89406174 0.74881142
-0.4060573 0.90099961 0.75929952
-0.3943598 0.90063822 0.75866836
0.25837478 0.90114242 0.74310547
0.27145091 0.90553313 0.74922508
0.28943563 0.91307324 0.7511887
0.30711237 0.91748112 0.75602698
0.33145496 0.91746026 0.75831455
0.34891668 0.91761482 0.75867736
0.36517304 0.91924888 0.75934571
0.41269308 0.91820133 0.7582739
0.43156016 0.91463387 0.75275362
0.44512475 0.90759218 0.75001538
0.2978183 0.92079288 0.74275029
0.31172192 0.92354244 0.74803269
0.33049026 0.92626154 0.74937648
0.35036051 0.9278003 0.74967468
0.37012464 0.92843932 0.75079358
0.38969547 0.92811024 0.75095093
0.409435 0.92608547 0.74892831
0.42558509 0.92297763 0.7448613
-0.24586026 0.99865592 0.7555052
-0.22989535 0.99605674 0.75076264
-0.21028186 0.99159628 0.75047016
-0.19013028 0.9872061 0.75017983
-0.17016038 0.98428977 0.74989891
-0.15011649 0.98315006 0.75003719
-0.13032833 0.9838019 0.75042236
-0.11025637 0.98546636 0.75018817
-0.090019725 0.98925108 0.75063676
-0.070042782 0.9954353 0.75142992
-0.056532819 0.99890608 0.75636971
0.17548868 0.99798739 0.74770629
0.18470006 0.9948281 0.74306649
-0.4473162 1.0107673 0.75004327
-0.42981645 1.0116203 0.75064194
-0.41010517 1.0130408 0.75076127
-0.38989004 1.0140053 0.75076127
-0.36992234 1.0136921 0.75101119
-0.35012385 1.0132864 0.75057775
-0.32999635 1.0124284 0.7504223
-0.31023228 1.0112259 0.7506941
-0.29017869 1.009131 0.75053245
-0.27007002 1.0058349 0.75047231
-0.25210783 1.0023123 0.7476204
-0.23779283 1.000276 0.74088526
-0.060165662 1.0003963 0.74116457
-0.048499554 1.0030612 0.74998277
-0.029934237 1.0093703 0.75092602
-0.01126198 1.0158491 0.75238639
0.0029538206 1.0188576 0.7578724
0.13819535 1.0160146 0.75942618
0.15087572 1.0134754 0.75550503
0.17011757 1.0102979 0.74824691
0.18291016 1.0075281 0.74186331
-0.40050107 1.0200108 0.740291
-0.39549276 1.0200216 0.74031776
-0.0038734295 1.021403 0.74519569
0.010669752 1.0249754 0.7505604
0.030057205 1.032099 0.75092655
0.04844413 1.0366523 0.75519562
0.064997524 1.0387018 0.75882196
0.11794857 1.0388677 0.75966012
0.13255492 1.0325687 0.75800931
0.14997149 1.0301657 0.75253397
0.16737428 1.0289965 0.74477977
0.039347652 1.0404404 0.74148154
0.052518185 1.0433739 0.74678266
0.070610896 1.0478426 0.75044024
0.089801349 1.0516268 0.75247079
0.11017384 1.0510938 0.75404817
0.12965387 1.0502089 0.75137782
0.14828041 1.0484071 0.74522561
0.16236557 1.0427264 0.74123722
0.093964219 1.0616078 0.74245775
0.11008537 1.0631667 0.74341017
0.12792514 1.0623666 0.74252808
0.14079434 1.0600826 0.74064797
0.05923453 0.37956616 0.77903521
0.062866263 0.37244967 0.76914114
0.056556366 0.39269158 0.7713396
0.062203526 0.38454816 0.76436293
0.035216659 0.41702285 0.77190459
0.047297195 0.40583435 0.7692427
-0.005791421 0.42710626 0.76971787
0.010293894 0.42676622 0.77000153
0.026506571 0.42304164 0.76797509
-0.48978654 0.71877539 0.76555061
-0.47158936 0.71628219 0.76555067
-0.4496507 0.71483302 0.76690912
-0.42932272 0.71419203 0.76773471
-0.40893674 0.71455091 0.76921493
-0.39029235 0.71014774 0.76531595
-0.36705759 0.71665174 0.77318603
-0.35021099 0.7172032 0.773839
-0.33360881 0.71737289 0.77403963
-0.020836342 0.71893436 0.77588475
-0.010128847 0.71742976 0.77786857
-0.52201784 0.73174459 0.76955777
-0.5095551 0.73370552 0.77350199
-0.48939013 0.73132479 0.77545112
-0.46999338 0.72953707 0.77655423
-0.44972172 0.72695619 0.77691752
-0.4311083 0.72629446 0.77754635
-0.41054392 0.72628319 0.77846682
-0.39028016 0.72345573 0.77761871
-0.37019175 0.72231996 0.77739412
-0.35535899 0.72379643 0.77914888
-0.28891206 0.72246897 0.77757025
-0.26556411 0.7254557 0.7773602
-0.030524112 0.72466189 0.77892226
-0.019127812 0.72090435 0.77821773
-0.51156604 0.74412721 0.77882391
-0.50213915 0.79523724 0.77794039
-0.49002323 0.79591453 0.77836913
-0.47042012 0.79632229 0.77852499
-0.4498581 0.79648286 0.77838415
-0.42996946 0.79563868 0.77759188
-0.41038328 0.79513288 0.77718771
-0.39098075 0.79544312 0.77750885
-0.37370506 0.79772675 0.77877617
-0.50234067 0.81020784 0.76748294
-0.48984841 0.80999362 0.76854581
-0.46999186 0.81025481 0.7686227
-0.45004919 0.81028175 0.76869875
-0.43016315 0.810606 0.76801842
-0.41027564 0.81012565 0.76770067
-0.3899706 0.81019169 0.76816088
-0.37020692 0.81036985 0.77116191
-0.35096315 0.81267089 0.77479309
-0.33178836 0.81672448 0.77728552
-0.31744415 0.81918323 0.77930301
0.27974552 0.81998497 0.76066703
0.29247996 0.81743467 0.76396966
0.31050965 0.81406021 0.76715028
0.33137175 0.81221986 0.76405102
0.3504504 0.81219685 0.76407993
0.37033534 0.81091756 0.76533616
0.3895503 0.81072176 0.7664209
0.40930343 0.81213295 0.7655102
0.42090645 0.81481493 0.76562321
-0.36761594 0.82143807 0.76176608
-0.34887898 0.82430488 0.76480454
-0.32946947 0.82841796 0.76799911
-0.31142959 0.83110523 0.77324867
-0.29476532 0.83529502 0.77762228
0.25660002 0.83676296 0.76489598
0.27103981 0.83218706 0.76914012
0.28964841 0.82734811 0.77228016
0.30938187 0.82436079 0.77533728
0.33323729 0.8254261 0.77145773
0.34966204 0.82816392 0.77382725
0.36957654 0.82679284 0.77540123
0.38878441 0.82451344 0.77600902
0.40956262 0.82542622 0.77606183
0.43026155 0.8312127 0.77549052
0.44461584 0.838126 0.77165675
-0.3229132 0.84129387 0.76107281
-0.30892244 0.84853345 0.76510096
-0.29009223 0.84964883 0.77468044
-0.27835485 0.85323566 0.77907145
0.24931967 0.85008198 0.77230984
0.26512283 0.84157729 0.77682233
0.43831718 0.84304404 0.77877939
0.44517648 0.85144299 0.77570909
-0.3214879 0.87767005 0.76148558
-0.30793345 0.87024903 0.76544261
-0.28991294 0.86955035 0.77447939
-0.27797014 0.86659539 0.77910656
0.24910045 0.87321329 0.77335054
0.26119024 0.87970442 0.77922016
0.43988657 0.87890184 0.77934021
0.44705737 0.87193537 0.77360553
-0.47215024 0.89984095 0.76030636
-0.44281685 0.89982319 0.76027495
-0.36494595 0.89857781 0.76112819
-0.34797958 0.89497203 0.76370329
-0.32879364 0.8915714 0.767721
-0.31013492 0.88978601 0.77386397
-0.29299891 0.88544095 0.77778834
0.25492263 0.884278 0.76679677
0.26997635 0.89012039 0.77003783
0.28876242 0.89467514 0.77383274
0.30876261 0.89722037 0.77718341
0.3315326 0.89409435 0.77477372
0.34951377 0.894054 0.77478921
0.36939797 0.89561045 0.77638406
0.38908446 0.89716178 0.77787334
0.41081768 0.89700598 0.77741945
0.43136755 0.89334118 0.77485067
0.44531059 0.89002669 0.76793009
-0.46751872 0.90944952 0.76739913
-0.45048165 0.91068888 0.76830465
-0.4302434 0.91087145 0.76756197
-0.41009051 0.91139251 0.76678824
-0.38993499 0.91191268 0.76719248
-0.3700203 0.91127658 0.76968318
-0.35030192 0.9106493 0.77418554
-0.33172959 0.90620816 0.77679855
-0.31661919 0.90204954 0.77844191
0.27826259 0.90093285 0.76118666
0.29192489 0.90445131 0.76470017
0.31037465 0.90791261 0.76738495
0.32974723 0.90779871 0.76484114
0.35054827 0.9077245 0.76488918
0.37033719 0.90933168 0.76634485
0.3899684 0.9095313 0.76810151
0.40939415 0.90862513 0.76760906
0.42833066 0.90533197 0.76533818
0.44168383 0.90161991 0.76217824
-0.46291009 0.92675215 0.77663982
-0.44971007 0.92883009 0.77743441
-0.42963549 0.92958039 0.77694499
-0.4103002 0.93049502 0.77636361
-0.39059821 0.9300999 0.77616113
-0.37156212 0.92593622 0.77722973
-0.35533303 0.92212945 0.77891046
0.39303753 0.92028737 0.76005131
-0.40604654 0.9411149 0.77969795
-0.3962568 0.94118804 0.77958071
-0.44527504 0.97603607 0.77876359
-0.43047228 0.97682297 0.77888572
-0.41002744 0.97723222 0.77919734
-0.39415109 0.97793955 0.77959722
-0.20281918 0.97934425 0.77869946
-0.18837392 0.97805911 0.77622879
-0.16934335 0.97710878 0.77452934
-0.14978141 0.97691053 0.77269781
-0.13014106 0.97672582 0.77306831
-0.11083136 0.97722107 0.77478528
-0.091696724 0.97811484 0.77798551
-0.076523952 0.97908539 0.7794947
-0.44502184 0.99054271 0.77123231
-0.43001133 0.99051052 0.77208579
-0.4098385 0.99048412 0.77301729
-0.38984755 0.99018222 0.77391905
-0.37003413 0.99080968 0.77446705
-0.35016099 0.99251294 0.77452415
-0.3300702 0.9935568 0.77497905
-0.30991924 0.99441761 0.7748754
-0.28996113 0.9946745 0.77373374
-0.2694729 0.99428481 0.77188581
-0.25012663 0.99197233 0.77060634
-0.23013416 0.98842859 0.77067173
-0.21046349 0.98496133 0.7701878
-0.19115962 0.98299992 0.76725
-0.17082915 0.98148602 0.76487392
-0.15104647 0.98093343 0.76314735
-0.12909037 0.98112005 0.76309019
-0.10878427 0.98203319 0.76469445
-0.089266397 0.98390114 0.76808131
-0.069636792 0.98719376 0.77081972
-0.04994851 0.99139774 0.77231282
-0.030245939 0.99377424 0.77524352
-0.011401284 0.996005 0.77766144
0.0052457382 0.99852818 0.77913648
0.07248912 0.99853057 0.77912897
0.080880113 0.99947208 0.77772433
-0.44555172 1.0017227 0.76190805
-0.42955109 1.0023277 0.76246727
-0.4097892 1.0031374 0.76349658
-0.39010555 1.0039345 0.76376951
-0.36996609 1.0040464 0.76413316
-0.34985527 1.0041233 0.76420367
-0.33004743 1.0034924 0.76481283
-0.30987 1.002993 0.7650606
-0.2905454 1.0024178 0.7637772
-0.2737444 1.0011914 0.7623204
-0.042148162 1.0009267 0.76210392
-0.028234579 1.0034025 0.76531583
-0.0092782276 1.0067294 0.76849002
0.010354858 1.0099769 0.77131033
