# .PCD v0.7 - Point Cloud Data file format
VERSION 0.7
FIELDS x y z
SIZE 4 4 4
TYPE F F F
COUNT 1 1 1
WIDTH 1325
HEIGHT 1
VIEWPOINT 0 0 0 1 0 0 0
POINTS 1325
DATA ascii
-0.75426835 -0.084202081 0.0083365198
-0.7455098 -0.083265141 0.0083115846
-0.73559308 -0.083765216 0.0082905674
-0.72487068 -0.083788954 0.0082654832
-0.71414775 -0.083812594 0.0082403887
-0.70422399 -0.0843127 0.0082194302
-0.69547617 -0.083375752 0.0081943776
-0.68555182 -0.083875798 0.0081734871
-0.67482758 -0.083899498 0.0081483657
-0.66410303 -0.083923243 0.0081232218
-0.65417159 -0.084423333 0.008102268
-0.6454345 -0.083486237 0.0080773374
-0.63550252 -0.083986431 0.0080563035
-0.62477666 -0.084010154 0.0080311596
-0.61405033 -0.084033787 0.0080061601
-0.60411131 -0.084534019 0.0079850946
-0.5953849 -0.083596855 0.0079601509
-0.58771133 -0.08329495 0.0079406938
0.59546447 -0.085908063 0.0051714969
0.60395908 -0.086725391 0.0051554129
0.6147272 -0.086749218 0.0051301643
0.62549561 -0.086773001 0.0051049953
0.63546908 -0.086315893 0.0050793807
0.64423931 -0.08729364 0.0050633443
0.65421331 -0.086836457 0.0050378046
0.66498309 -0.086860262 0.0050125509
0.6757533 -0.086884074 0.0049873646
0.68572217 -0.086426862 0.0049618273
0.69450599 -0.087404706 0.004945707
0.70447546 -0.086947538 0.0049201339
0.71524698 -0.086971335 0.0048949271
0.72521228 -0.086514071 0.0048693856
0.73499465 -0.087014973 0.0048487079
0.74478066 -0.087515876 0.0048280433
0.75474566 -0.087058604 0.0048025227
0.7655189 -0.087082408 0.0047772718
0.77547967 -0.086625189 0.0047516925
0.78428781 -0.087603197 0.0047356375
0.7942493 -0.087145902 0.0047100037
0.80502385 -0.087169737 0.0046848222
0.81530547 -0.084799796 0.0046494785
0.82550001 -0.084223635 0.0046227654
0.83504695 -0.084843792 0.0046032914
0.84459901 -0.085462637 0.0045836871
0.85479283 -0.084886916 0.0045570475
0.8649826 -0.08431071 0.0045303502
0.87513518 -0.084931761 0.0045094583
0.88530767 -0.084954694 0.0044856574
0.89486861 -0.085573539 0.0044660415
0.90505666 -0.084997803 0.0044394028
0.91524041 -0.084421515 0.0044127363
0.92480367 -0.085041821 0.0043931897
0.93497777 -0.085063785 0.0043693813
0.94514638 -0.085684508 0.0043484196
0.95473427 -0.084508605 0.0043202937
0.9649033 -0.085129812 0.0042993217
0.97507858 -0.08515273 0.0042755138
0.98465586 -0.085771717 0.0042559267
0.99483311 -0.085195869 0.0042292648
1.004999 -0.082822986 0.004194147
1.0157677 -0.082846634 0.0041690278
1.0256941 -0.082390234 0.004143483
1.034559 -0.083366394 0.0041272244
1.0444862 -0.082909934 0.0041017844
1.0552562 -0.082933642 0.0040765805
1.0651791 -0.082477197 0.0040510171
1.0750012 -0.082977138 0.0040303436
1.0848271 -0.083477087 0.0040096357
1.0947497 -0.083020635 0.003984096
1.1055213 -0.083044372 0.0039589098
1.1154399 -0.082587801 0.0039334432
1.1252697 -0.083087847 0.0039126701
1.135103 -0.083587907 0.003891927
1.1432257 -0.083127379 0.003870684
-1.1407118 -0.075714253 0.0092049707
-1.134683 -0.073349901 0.0091796685
-1.1249335 -0.072895817 0.0091545405
-1.1150984 -0.07339292 0.009133745
-1.1044143 -0.0734163 0.0091088256
-1.094574 -0.073913485 0.0090880021
-1.0848256 -0.073459379 0.0090629188
-1.0750805 -0.073005155 0.0090379184
-1.0652376 -0.073502325 0.0090170847
-1.0545524 -0.073525794 0.0089920564
-1.0447042 -0.074022993 0.0089712841
-1.0349603 -0.073568754 0.0089462735
-1.0252197 -0.073114574 0.008921166
-1.0153694 -0.073611803 0.0089003397
-1.0046822 -0.073635206 0.0088753821
-0.9948265 -0.074132457 0.0088545829
-0.98508722 -0.073678263 0.0088294689
-0.97535098 -0.073223978 0.0088044573
-0.96549302 -0.073721193 0.0087836944
-0.95480424 -0.073744707 0.0087586129
-0.94494092 -0.074242011 0.008737782
-0.93520612 -0.073787697 0.0087127732
-0.92547435 -0.073333353 0.0086877737
-0.91560894 -0.073830761 0.0086668441
-0.90491837 -0.073854156 0.0086418977
-0.8942275 -0.07387764 0.0086168544
-0.88435507 -0.074375026 0.0085959863
-0.87558985 -0.073442847 0.0085709598
-0.86571676 -0.07394018 0.0085501419
-0.85502458 -0.073963694 0.00852508
-0.84433204 -0.073987156 0.0085000508
-0.83445197 -0.074484549 0.0084792031
-0.82569754 -0.073552266 0.0084542548
-0.81581682 -0.074049771 0.0084332945
-0.80512291 -0.074073158 0.0084083537
-0.79442865 -0.074096657 0.0083832657
-0.78454101 -0.074594155 0.0083623575
-0.77579713 -0.073661752 0.0083374213
-0.7659089 -0.074159242 0.0083165271
-0.75521332 -0.074182726 0.0082914801
-0.74451751 -0.074206226 0.0082664359
-0.73462212 -0.074703723 0.0082455743
-0.72588891 -0.073771261 0.0082206074
-0.71599317 -0.074268818 0.0081996555
-0.70529586 -0.074292265 0.0081746625
-0.69459826 -0.074315742 0.0081496313
-0.68469536 -0.074813381 0.0081286477
-0.67498392 -0.074358799 0.0081037069
-0.66527551 -0.073904231 0.0080787819
-0.65537047 -0.074401855 0.0080577936
-0.64467114 -0.074425362 0.0080327317
-0.63397139 -0.074448764 0.0080077443
-0.62405938 -0.074946515 0.007986729
-0.61534989 -0.074013807 0.0079618618
-0.60543716 -0.074511416 0.0079409415
-0.59473616 -0.0745349 0.0079159094
-0.58581841 -0.074554488 0.0078950468
0.59551615 -0.075361922 0.0051216432
0.60517567 -0.074192457 0.0050934106
0.61465985 -0.074809268 0.0050740358
0.62414885 -0.075424701 0.0050546029
0.63434434 -0.074851938 0.0050279475
0.64508098 -0.074875459 0.0050028209
0.65527105 -0.074302182 0.0049761697
0.66476429 -0.07491906 0.0049567479
0.6742624 -0.075534545 0.0049373358
0.68445188 -0.074961744 0.0049106465
0.69519019 -0.074985236 0.0048855431
0.70537436 -0.074411899 0.004858884
0.71487665 -0.075028829 0.0048394757
0.72438383 -0.075644389 0.0048200111
0.7345674 -0.075071536 0.004793366
0.74530739 -0.075095057 0.0047682426
0.75548565 -0.074521646 0.0047415928
0.76499701 -0.075138666 0.0047221431
0.77451324 -0.075754248 0.0047026994
0.78469092 -0.07518135 0.0046760412
0.79543263 -0.075204879 0.0046509281
0.80560493 -0.074631408 0.0046242736
0.8156091 -0.072390191 0.0045901956
0.82439613 -0.073361076 0.0045741438
0.83431798 -0.072906934 0.0045486684
0.84505492 -0.072930478 0.0045234719
0.85579228 -0.072953895 0.0044984249
0.86570913 -0.072499737 0.0044729351
0.87450951 -0.073470742 0.0044568265
0.88442701 -0.073016532 0.0044313804
0.89516568 -0.073040016 0.0044062715
0.90507901 -0.072585784 0.004380825
0.91485316 -0.073083095 0.0043601436
0.924631 -0.073580369 0.0043395543
0.93454391 -0.073126145 0.0043141106
0.94528437 -0.073149674 0.0042888923
0.95519322 -0.072695352 0.0042635137
0.96497494 -0.073192693 0.0042428761
0.97476041 -0.073690072 0.0042221919
0.98466891 -0.073235795 0.0041967337
0.99541098 -0.073259279 0.0041716439
1.0053154 -0.072804943 0.0041461638
1.0151048 -0.073302366 0.0041255164
1.0248978 -0.073799752 0.0041048569
1.0348018 -0.0733454 0.0040794485
1.0455456 -0.073368959 0.004054232
1.0554454 -0.072914533 0.0040288819
1.0652424 -0.073412016 0.004008139
1.0750431 -0.073909491 0.0039874972
1.0849426 -0.073455103 0.0039620395
1.0956881 -0.073478587 0.0039369296
1.1055835 -0.073024198 0.0039114719
1.1144485 -0.073995724 0.0038952199
1.1243446 -0.073541254 0.0038698481
1.1350913 -0.073564768 0.0038446791
1.1422563 -0.073580474 0.003827896
-1.1345812 -0.064335957 0.009136782
-1.1248528 -0.063883923 0.0091117807
-1.1151274 -0.063431822 0.0090868548
-1.1053144 -0.063926496 0.0090660304
-1.0946561 -0.063949756 0.0090410803
-1.0848377 -0.064444341 0.0090204151
-1.0751139 -0.063992344 0.0089953532
-1.065393 -0.06354025 0.0089703491
-1.0555725 -0.064034916 0.0089496188
-1.0449123 -0.064058118 0.0089246808
-1.034252 -0.064081401 0.0088996962
-1.0244246 -0.064576149 0.0088789109
-1.0156505 -0.063648582 0.0088539571
-1.0058225 -0.06414336 0.0088331681
-0.99516082 -0.064166613 0.0088082207
-0.98449868 -0.064189799 0.0087833004
-0.97466362 -0.064684644 0.0087624714
-0.96494961 -0.064232461 0.0087375054
-0.95523864 -0.063780218 0.0087125702
-0.94540137 -0.064275034 0.0086917719
-0.93473768 -0.064298309 0.0086667845
-0.92489499 -0.064793132 0.0086460058
-0.91518539 -0.064340852 0.0086210938
-0.90547884 -0.063888684 0.0085960533
-0.89563411 -0.064383522 0.008575269
-0.88496858 -0.064406715 0.0085503543
-0.87430286 -0.064430028 0.0085253306
-0.86445111 -0.064924985 0.0085044596
-0.85571128 -0.06399706 0.0084796166
-0.84585887 -0.064491995 0.0084587904
-0.83519191 -0.06451527 0.008433803
-0.82452434 -0.064538494 0.008408851
-0.81466502 -0.065033443 0.0083880564
-0.80496532 -0.064581163 0.0083630541
-0.79526865 -0.064128801 0.0083381301
-0.78540713 -0.064623713 0.0083173215
-0.77473789 -0.064647049 0.0082922829
-0.76406842 -0.064670317 0.0082673104
-0.75419992 -0.065165289 0.0082464935
-0.74548364 -0.064237282 0.0082216114
-0.7356146 -0.064732321 0.0082007023
-0.7249437 -0.064755552 0.0081757642
-0.7142725 -0.064778812 0.0081507964
-0.70439643 -0.065273941 0.0081298565
-0.69569075 -0.064345747 0.0081050256
-0.68581414 -0.064840816 0.0080841854
-0.67514157 -0.064864121 0.0080591775
-0.66446865 -0.064887382 0.0080341958
-0.65458512 -0.065382466 0.0080133248
-0.64589 -0.064454257 0.0079885144
-0.63600582 -0.064949416 0.0079675829
-0.62533158 -0.064972647 0.0079426449
-0.61465704 -0.064995922 0.0079176622
-0.60398209 -0.065019198 0.0078926357
-0.59408933 -0.065514401 0.0078717489
-0.58540708 -0.064586006 0.0078469776
-0.57907248 -0.06507352 0.007834265
0.58769268 -0.064299457 0.0050877542
0.59509015 -0.063683972 0.0050674933
0.60467762 -0.063387282 0.0050435979
0.61459523 -0.062935509 0.0050180634
0.62529898 -0.062958725 0.0049930043
0.63600296 -0.062981911 0.0049680416
0.64591557 -0.062530063 0.0049425536
0.65463585 -0.06349586 0.0049265944
0.66454899 -0.063043959 0.004901174
0.6752544 -0.063067205 0.004876127
0.68596029 -0.063090496 0.0048510577
0.69586837 -0.062638566 0.0048256093
0.704602 -0.0636044 0.0048097125
0.71451086 -0.063152544 0.0047842152
0.72521788 -0.06317579 0.0047591408
0.73592538 -0.063198961 0.0047341534
0.74582899 -0.062747009 0.0047086976
0.75457609 -0.063713022 0.0046927175
0.76448041 -0.06326101 0.0046672733
0.77518916 -0.063284263 0.0046422216
0.78589839 -0.063307561 0.0046171546
0.79579753 -0.062855497 0.0045917714
0.8045581 -0.063821554 0.0045757676
0.81445789 -0.063369572 0.0045503215
0.82516837 -0.06339287 0.0045252177
0.83587927 -0.063416056 0.0045002126
0.84577405 -0.06296403 0.0044747619
0.85454798 -0.063930236 0.0044587282
0.8644433 -0.063478135 0.0044333376
0.87515551 -0.063501418 0.004408231
0.88586813 -0.063524731 0.0043830872
0.89575833 -0.063072562 0.0043577701
0.90454566 -0.064038858 0.0043417211
0.91443664 -0.063586757 0.0043163016
0.92515057 -0.06361004 0.004291195
0.93503743 -0.063157797 0.0042658923
0.94479257 -0.063652672 0.0042452458
0.95455152 -0.064147554 0.0042246394
0.9644379 -0.063695326 0.0041992948
0.97515345 -0.063718624 0.0041741882
0.9850359 -0.063266441 0.0041487543
0.99479866 -0.063761316 0.0041281781
1.004565 -0.064256184 0.0041076355
1.0144471 -0.063803978 0.0040822215
1.0251644 -0.063827261 0.0040571173
1.0350423 -0.063374951 0.0040318281
1.0448126 -0.063869946 0.0040111239
1.0545866 -0.06436491 0.0039904588
1.0644641 -0.0639126 0.0039651482
1.075183 -0.063935846 0.003940091
1.0850565 -0.063483551 0.0039147316
1.0948344 -0.063978612 0.0038940506
1.1046159 -0.064473584 0.0038734395
1.1144891 -0.06402126 0.0038480742
1.1252098 -0.06404458 0.0038229378
1.1350788 -0.063592181 0.0037976652
1.1401907 -0.066446044 0.0037990937
-1.1327902 -0.054424625 0.0090858266
-1.1247734 -0.054912973 0.0090692388
-1.1150693 -0.054463014 0.0090443138
-1.1053681 -0.054012991 0.0090194242
-1.0955772 -0.054505166 0.008998733
-1.0849442 -0.054528207 0.0089738006
-1.0743107 -0.054551203 0.0089489454
-1.064513 -0.055043418 0.0089282189
-1.0548142 -0.054593448 0.0089032603
-1.0451186 -0.054143418 0.0088783773
-1.0353184 -0.054635569 0.008857687
-1.0246834 -0.054658651 0.0088327704
-1.0148779 -0.055150948 0.0088119889
-1.0051836 -0.05470084 0.0087871524
-0.99549228 -0.05425074 0.0087622395
-0.98568469 -0.054743078 0.008741443
-0.97504789 -0.054766089 0.0087165693
-0.96441078 -0.054789092 0.0086916946
-0.9545964 -0.05528146 0.0086709335
-0.94490737 -0.054831352 0.0086460141
-0.93522149 -0.054381143 0.0086211897
-0.92540485 -0.054873552 0.0086003793
-0.91476601 -0.054896589 0.0085754693
-0.90412682 -0.05491956 0.0085506244
-0.89430332 -0.055412006 0.0085298177
-0.88557804 -0.054488629 0.0085049067
-0.87575388 -0.054981012 0.0084842015
-0.86511344 -0.055004034 0.0084592728
-0.85447264 -0.055027101 0.0084343245
-0.84464151 -0.05551957 0.0084135616
-0.83496231 -0.055069298 0.0083887121
-0.82528627 -0.054619111 0.0083637498
-0.81545299 -0.055111583 0.0083430121
-0.80481052 -0.055134553 0.008318129
-0.79416752 -0.055157632 0.0082932068
-0.78432739 -0.055650186 0.0082723554
-0.77562553 -0.054726534 0.0082475748
-0.76578474 -0.055219069 0.0082267402
-0.75514054 -0.055242125 0.0082018347
-0.74449593 -0.055265147 0.0081769247
-0.73464823 -0.055757701 0.0081561487
-0.72497892 -0.055307437 0.0081312088
-0.71531266 -0.054857068 0.0081063826
-0.70546275 -0.055349622 0.0080856076
-0.69481653 -0.055372704 0.0080606444
-0.68416995 -0.055395752 0.0080357147
-0.67431301 -0.055888377 0.0080149062
-0.66563457 -0.054964535 0.0079901461
-0.65577716 -0.055457216 0.0079692528
-0.6451292 -0.055480272 0.0079443473
-0.63448095 -0.055503275 0.0079194326
-0.62461662 -0.055996023 0.00789853
-0.61594874 -0.055072077 0.0078738164
-0.60608369 -0.055564765 0.0078529725
-0.59543413 -0.055587832 0.0078280307
-0.58478421 -0.055610914 0.0078030485
-0.57638592 -0.054843366 0.0077798045
0.58464617 -0.053425428 0.005043631
0.59532332 -0.053448513 0.0050185896
0.60600066 -0.053471524 0.0049935919
0.61589205 -0.05302171 0.0049682404
0.62458348 -0.053982757 0.0049523553
0.63447553 -0.053532969 0.0049269111
0.64515424 -0.05355598 0.0049019563
0.65583336 -0.053579021 0.0048769638
0.66572034 -0.053129219 0.0048515471
0.67442507 -0.054090321 0.0048356475
0.68431264 -0.053640466 0.004810303
0.69499302 -0.053663511 0.0047852709
0.70567387 -0.053686555 0.0047602858
0.71555644 -0.053236626 0.0047349585
0.72427452 -0.05419787 0.004719005
0.73415774 -0.05374803 0.0046935878
0.74483973 -0.053771008 0.0046686251
0.75552225 -0.053794052 0.0046436354
0.76540041 -0.053344138 0.0046182647
0.77510661 -0.053836327 0.0045977538
0.78481656 -0.054328524 0.0045773005
0.79469436 -0.053878602 0.0045519122
0.8053785 -0.053901646 0.0045268633
0.8152523 -0.053451635 0.0045015952
0.82496595 -0.053943884 0.0044810516
0.83468342 -0.054436166 0.0044605061
0.84455681 -0.053986121 0.00443521
0.85524255 -0.054009184 0.0044102198
0.86511195 -0.053559162 0.0043848837
0.87483317 -0.054051459 0.0043643159
0.88455808 -0.054543756 0.0043438221
0.894427 -0.054093733 0.0043184594
0.90511459 -0.054116782 0.0042934301
0.91580248 -0.054139782 0.0042684926
0.92566645 -0.053689759 0.0042430973
0.93444073 -0.054651428 0.0042270124
0.94430518 -0.054201301 0.0042017396
0.95499444 -0.054224372 0.0041767149
0.965684 -0.054247439 0.0041516903
0.9755435 -0.053797282 0.0041263797
0.98433113 -0.054759067 0.004110259
0.99419123 -0.054308925 0.0040849149
1.0048822 -0.054331999 0.004059928
1.0155734 -0.054355036 0.0040349574
1.0254285 -0.053904869 0.0040096091
1.0351739 -0.054397341 0.003989039
1.0449231 -0.054889817 0.0039684335
1.0547777 -0.054439615 0.0039431402
1.0654707 -0.054462697 0.0039181155
1.0753214 -0.054012455 0.0038928289
1.0850743 -0.054504976 0.0038722316
1.094831 -0.054997522 0.0038515995
1.1046814 -0.054547284 0.0038263181
1.1153759 -0.054570328 0.0038013456
1.1252222 -0.054120053 0.0037760311
1.1340499 -0.05508215 0.0037598058
-1.13185 -0.045029923 0.0090392381
-1.1247791 -0.045045089 0.0090227081
-1.1150125 -0.045534808 0.0090021221
-1.1053324 -0.045086935 0.0089771552
-1.094725 -0.045109723 0.0089523643
-1.085049 -0.044661719 0.0089275632
-1.0752785 -0.045151543 0.0089068217
-1.0646702 -0.045174345 0.0088820104
-1.0548944 -0.045664068 0.0088613862
-1.0452198 -0.045216128 0.0088365097
-1.0355481 -0.044768162 0.0088116284
-1.0257701 -0.045257937 0.0087909913
-1.0151601 -0.045280725 0.0087661771
-1.0045497 -0.045303568 0.0087412866
-0.99476492 -0.045793399 0.0087206354
-0.9850955 -0.04534534 0.0086958287
-0.97542936 -0.0448974 0.0086708544
-0.96564221 -0.045387235 0.0086501781
-0.9550302 -0.045410004 0.0086254189
-0.94441789 -0.045432795 0.0086005544
-0.93462402 -0.045922779 0.0085797776
-0.9249599 -0.045474622 0.0085550407
-0.91529906 -0.045026533 0.0085301949
-0.90550286 -0.045516476 0.0085094431
-0.89488888 -0.045539308 0.008484575
-0.88427448 -0.0455621 0.0084598223
-0.87447149 -0.046052117 0.008438997
-0.86481285 -0.045603972 0.0084141921
-0.85515726 -0.045155734 0.0083894636
-0.84535211 -0.045645814 0.0083686225
-0.83473605 -0.045668632 0.0083437739
-0.82411975 -0.045691401 0.0083189709
-0.81430757 -0.046181455 0.0082982238
-0.80562019 -0.045262281 0.0082734227
-0.79580754 -0.045752317 0.0082526673
-0.78518981 -0.045775101 0.0082278484
-0.77457172 -0.045797955 0.0082029635
-0.76475221 -0.046288073 0.0081821643
-0.75510329 -0.045839757 0.0081574665
-0.74545753 -0.045391537 0.0081326095
-0.73563582 -0.045881674 0.0081118187
-0.72501606 -0.045904446 0.0080869859
-0.714396 -0.045927327 0.0080621047
-0.70456731 -0.046417505 0.0080412878
-0.69492382 -0.045969188 0.0080165602
-0.68528336 -0.045520812 0.0079917992
-0.67545253 -0.046011049 0.0079709282
-0.66483086 -0.046033904 0.0079460647
-0.65420866 -0.046056662 0.0079212841
-0.64437091 -0.046546929 0.0079004299
-0.63571966 -0.045627408 0.0078757172
-0.62588125 -0.046117593 0.0078549581
-0.6152578 -0.046140421 0.0078300713
-0.60463411 -0.046163291 0.0078051486
-0.59400988 -0.046186093 0.0077803549
-0.58416307 -0.046676397 0.0077595315
-0.57552445 -0.045756716 0.0077348677
0.57721239 -0.043228347 0.0050128861
0.58501965 -0.044026453 0.0049983696
0.59467775 -0.044515986 0.0049779969
0.60454875 -0.04406831 0.0049526575
0.61520094 -0.044091124 0.0049277102
0.62585348 -0.044113874 0.0049028271
0.63571942 -0.043666195 0.0048774481
0.64439535 -0.04462257 0.0048615723
0.65426189 -0.04417479 0.0048363181
0.6649158 -0.044197608 0.0048113703
0.67557001 -0.044220462 0.0047864006
0.6854316 -0.043772638 0.0047610924
0.69412071 -0.044729106 0.0047452287
0.70398301 -0.044281345 0.0047198939
0.71463847 -0.044304136 0.0046949591
0.72529441 -0.044326957 0.004670029
0.73595065 -0.044349801 0.0046450789
0.74580681 -0.043901935 0.0046197856
0.75451213 -0.044858549 0.0046038264
0.76436901 -0.044410687 0.0045785494
0.77502656 -0.044433545 0.0045535653
0.78568441 -0.044456314 0.0045286645
0.79553634 -0.044008426 0.004503367
0.80425489 -0.044965152 0.0044874167
0.81410736 -0.044517234 0.004462101
0.82476658 -0.044540048 0.0044371882
0.83542627 -0.044562921 0.0044122483
0.84527367 -0.044114955 0.0043869577
0.85496873 -0.04460476 0.0043664738
0.86466742 -0.045094632 0.0043459702
0.87451452 -0.044646665 0.0043206871
0.8851757 -0.044669494 0.0042957622
0.89583731 -0.044692289 0.0042708465
0.90567952 -0.044244297 0.0042455527
0.91442746 -0.045201272 0.0042294832
0.92427009 -0.04475319 0.0042042998
0.93493319 -0.044776093 0.0041792835
0.9455964 -0.044798929 0.0041543134
0.95543414 -0.044350833 0.0041291043
0.96514565 -0.044840772 0.0041085812
0.97486097 -0.045330815 0.0040880153
0.9846983 -0.044882685 0.0040627816
0.9953633 -0.044905514 0.0040378715
1.0051967 -0.044457406 0.0040126229
1.0149156 -0.044947445 0.00399205
1.0246384 -0.045437407 0.0039715664
1.0344714 -0.044989329 0.0039463053
1.0451381 -0.045012191 0.0039212834
1.0558051 -0.045035001 0.0038963882
1.0656331 -0.044586841 0.0038711671
1.0744238 -0.045544147 0.0038549691
1.0842522 -0.045095962 0.0038297719
1.0949206 -0.045118812 0.0038048045
1.1055893 -0.045141697 0.0037798248
1.115413 -0.044693463 0.0037545785
1.1251484 -0.045183573 0.0037340578
1.1330813 -0.045982689 0.0037191659
-1.1256239 -0.035691399 0.0089805238
-1.1150427 -0.035714 0.0089557357
-1.1044611 -0.035736542 0.008930997
-1.0947144 -0.036223859 0.0089104082
-1.0850594 -0.035778027 0.0088855289
-1.0754074 -0.035332073 0.0088607846
-1.0656587 -0.035819396 0.0088401744
-1.0550755 -0.035842013 0.0088153696
-1.0444919 -0.035864603 0.0087906187
-1.0347364 -0.036351908 0.0087700179
-1.0250866 -0.035906084 0.0087451478
-1.01544 -0.035460062 0.0087204091
-1.0056822 -0.035947423 0.0086997915
-0.99509698 -0.035970032 0.0086750081
-0.98451132 -0.035992671 0.0086501827
-0.97474682 -0.036480077 0.0086295716
-0.96510226 -0.036034081 0.0086047789
-0.95546091 -0.035588101 0.0085799657
-0.94569427 -0.036075499 0.0085593574
-0.93510699 -0.036098104 0.0085346056
-0.9245193 -0.036120743 0.0085097468
-0.91474581 -0.036608253 0.008489104
-0.90510654 -0.036162123 0.0084643774
-0.89547062 -0.035716109 0.0084395641
-0.8856948 -0.036203627 0.0084188906
-0.87510556 -0.036226179 0.0083941538
-0.86451596 -0.036248829 0.0083693312
-0.85473329 -0.036736418 0.008348586
-0.84509945 -0.036290269 0.0083238771
-0.83546877 -0.035844106 0.0082991421
-0.82568407 -0.036331769 0.0082783839
-0.81509262 -0.036354322 0.0082536479
-0.804501 -0.036376912 0.0082288776
-0.79470944 -0.036864597 0.0082081193
-0.78508091 -0.036418427 0.0081833545
-0.77545559 -0.035972185 0.008158681
-0.76566178 -0.036459867 0.0081379162
-0.75506848 -0.036482502 0.0081131076
-0.74447471 -0.036505092 0.0080883568
-0.73467404 -0.036992751 0.0080676489
-0.72505099 -0.036546618 0.0080428133
-0.71543092 -0.036100306 0.0080181565
-0.7056281 -0.036588002 0.0079974281
-0.69503278 -0.03661067 0.0079725897
-0.68443704 -0.036633287 0.0079478035
-0.67462736 -0.037121005 0.0079270946
-0.6650095 -0.036674779 0.0079022758
-0.65539491 -0.036228471 0.0078775873
-0.64558297 -0.036716197 0.0078568878
-0.63498563 -0.036738839 0.0078320466
-0.62438792 -0.036761481 0.0078072264
-0.61456913 -0.037249297 0.0077864802
-0.60495669 -0.036802921 0.0077617858
-0.59534734 -0.036356647 0.0077369972
-0.58552641 -0.036844458 0.0077162422
-0.57492697 -0.036867041 0.0076914709
-0.5678606 -0.036882125 0.0076749292
0.57540774 -0.034184426 0.0049745273
0.58539343 -0.034672324 0.0049533169
0.59601951 -0.034694929 0.0049284459
0.60586458 -0.034249209 0.0049032145
0.61451185 -0.035200913 0.0048873839
0.62435752 -0.034755252 0.0048621292
0.63498491 -0.034777831 0.0048372587
0.64561266 -0.034800414 0.0048124227
0.65545338 -0.034354746 0.0047870916
0.66411388 -0.035306476 0.0047713025
0.67395514 -0.034860719 0.0047460408
0.6845842 -0.034883365 0.0047211382
0.69521362 -0.034905981 0.00469627
0.70584345 -0.034928579 0.0046713999
0.71567887 -0.034482781 0.0046461611
0.7243554 -0.035434745 0.0046302201
0.73419136 -0.034988884 0.00460506
0.74482244 -0.035011496 0.0045801494
0.75545388 -0.035034157 0.0045552473
0.7652849 -0.034588285 0.0045300024
0.77494478 -0.035075571 0.0045096641
0.78460836 -0.035562932 0.0044892034
0.79443902 -0.035117101 0.0044639665
0.80507213 -0.035139672 0.0044391486
0.8157056 -0.035162326 0.0044141863
0.8255313 -0.034716431 0.0043889768
0.8342371 -0.035668533 0.0043730326
0.84406328 -0.03522262 0.0043478613
0.85469818 -0.035245281 0.0043229242
0.86533338 -0.035267904 0.0042980183
0.87515461 -0.034821935 0.0042728717
0.88483095 -0.035309363 0.0042523933
0.89451104 -0.035796829 0.0042319382
0.90433192 -0.035350837 0.0042067836
0.91496879 -0.03537352 0.0041818335
0.92560601 -0.035396129 0.0041569457
0.93542194 -0.034950096 0.0041317986
0.94510728 -0.035437603 0.0041113254
0.95479649 -0.03592515 0.0040908167
0.96461201 -0.035479125 0.0040656431
0.9752509 -0.035501722 0.0040407907
0.9850626 -0.035055712 0.0040155412
0.99475545 -0.035543252 0.0039950907
1.0044518 -0.036030766 0.003974631
1.014263 -0.035584766 0.0039494005
1.0249037 -0.035607412 0.0039244783
1.0355445 -0.035630014 0.0038996104
1.0453509 -0.035183948 0.0038744553
1.0550528 -0.03567151 0.0038539656
1.0647582 -0.036159135 0.0038334504
1.0745642 -0.035713017 0.0038082928
1.0852066 -0.03573567 0.0037833331
1.0950086 -0.035289519 0.0037582372
1.1047179 -0.035777166 0.0037377055
1.114431 -0.036264829 0.003717202
1.1242326 -0.035818722 0.0036919834
1.1313286 -0.035833776 0.0036754166
-1.1237828 -0.026852194 0.008934496
-1.1150717 -0.025942158 0.00890972
-1.1053523 -0.026427066 0.0088891117
-1.0947955 -0.026449395 0.0088644531
-1.0842384 -0.026471755 0.008839759
-1.0745122 -0.026956772 0.0088190902
-1.0648818 -0.026512846 0.008794385
-1.0552546 -0.026068855 0.0087697487
-1.0455261 -0.026553869 0.0087490967
-1.0349675 -0.026576275 0.0087243533
-1.0244083 -0.02659861 0.0086996816
-1.0146731 -0.027083587 0.0086790938
-1.0050482 -0.026639715 0.0086543076
-0.9954263 -0.026195725 0.0086296406
-0.98568887 -0.026680699 0.0086090583
-0.97512811 -0.026703188 0.0085842274
-0.96456701 -0.026725514 0.008559606
-0.95482272 -0.027210513 0.0085390145
-0.94520313 -0.026766561 0.0085142488
-0.93558645 -0.02632257 0.0084895287
-0.92584008 -0.026807593 0.0084689604
-0.9152773 -0.026830012 0.0084441835
-0.90471435 -0.026852446 0.0084194215
-0.89415091 -0.026874796 0.0083947452
-0.88439596 -0.027359882 0.0083741369
-0.87478256 -0.026915899 0.0083493749
-0.86517221 -0.026471768 0.0083247377
-0.85459471 -0.025219711 0.0082939388
-0.84491307 -0.025240202 0.0082713012
-0.83496094 -0.024681613 0.0082452418
-0.82498801 -0.02470318 0.0082219196
-0.81501496 -0.02472385 0.0081985593
-0.80506915 -0.024164718 0.0081725484
-0.7950691 -0.024766035 0.0081518851
-0.78450829 -0.024788391 0.0081271343
-0.77450174 -0.025389332 0.0081064356
-0.76514441 -0.024829831 0.0080818273
-0.75516933 -0.024850491 0.0080584539
-0.74523067 -0.024291327 0.0080324393
-0.73521978 -0.024892699 0.0080117723
-0.72465688 -0.024915056 0.0079870345
-0.71463954 -0.025516046 0.0079663238
-0.70470262 -0.024957307 0.0079403259
-0.69472557 -0.024978865 0.0079169869
-0.68538088 -0.024417901 0.0078923907
-0.67535907 -0.025019402 0.0078716381
-0.66479427 -0.025041753 0.0078469161
-0.65476602 -0.025642809 0.0078261644
-0.64483613 -0.025084011 0.0078001916
-0.63485712 -0.025105583 0.0077768154
-0.62551963 -0.024544571 0.0077522164
-0.61548704 -0.025146119 0.0077314693
-0.60492021 -0.025168477 0.0077067595
-0.59435296 -0.025190851 0.0076819975
-0.58431196 -0.025791992 0.007661242
-0.5749774 -0.025232308 0.0076366505
-0.56564701 -0.024671225 0.0076120677
0.56952405 -0.0230064 0.0049355486
0.57417172 -0.025802683 0.0049377987
0.58399755 -0.025358992 0.0049126679
0.59459829 -0.02538144 0.00488779
0.6051994 -0.025403844 0.0048629846
0.61580086 -0.025426203 0.004838211
0.62562078 -0.024982532 0.0048129717
0.63425267 -0.025929665 0.0047971555
0.64407319 -0.025485948 0.0047719828
0.6546759 -0.025508357 0.0047471803
0.66527909 -0.025530783 0.0047223144
0.67588252 -0.025553146 0.004697524
0.6856972 -0.025109392 0.0046723755
0.69434506 -0.026056672 0.0046565114
0.70416021 -0.025612921 0.0046312981
0.71476507 -0.025635293 0.0046065501
0.72537017 -0.025657712 0.0045816866
0.73597568 -0.025680155 0.0045568291
0.74578494 -0.025236297 0.0045317197
0.75444877 -0.026183704 0.0045158053
0.76425868 -0.025739899 0.0044906186
0.77486545 -0.02576229 0.0044658105
0.78547263 -0.025784669 0.0044410243
0.79527771 -0.02534084 0.0044158748
0.804919 -0.025825789 0.0043954519
0.81456393 -0.026310727 0.0043751174
0.82436866 -0.025866887 0.0043499363
0.83497745 -0.025889324 0.0043250783
0.8455866 -0.025911696 0.0043002875
0.85538638 -0.025467834 0.0042751119
0.86503667 -0.025952809 0.0042547346
0.87469065 -0.026437808 0.0042343424
0.88448995 -0.025993863 0.0042092586
0.89510083 -0.026016308 0.0041843588
0.90571207 -0.026038742 0.0041595162
0.91550636 -0.02559476 0.0041344087
0.92516571 -0.026079839 0.0041139829
0.93482876 -0.026564956 0.004093532
0.94462281 -0.026120931 0.0040684496
0.95523566 -0.026143355 0.0040436466
0.96584886 -0.026165834 0.0040186918
0.97563791 -0.025721777 0.0039936486
0.98436278 -0.026669592 0.0039776536
0.99415255 -0.026225606 0.0039524711
1.0047669 -0.026248014 0.0039276429
1.0153818 -0.026270436 0.003902822
1.0251665 -0.025826374 0.0038776961
1.0348424 -0.026311561 0.0038572298
1.0445218 -0.026796728 0.003836792
1.054306 -0.026352659 0.003811704
1.0649228 -0.026375128 0.0037867844
1.0755395 -0.026397534 0.0037619781
1.0853189 -0.025953421 0.0037368913
1.0950037 -0.026438639 0.0037164229
1.1046922 -0.026923919 0.0036959157
1.1144713 -0.02647979 0.0036708403
1.1250898 -0.026502235 0.0036459819
-1.1227018 -0.019437423 0.0088969134
-1.1139207 -0.019455938 0.00887636
-1.1051394 -0.01947445 0.008855857
-1.0963578 -0.019492874 0.0088353381
-1.0858197 -0.019515224 0.00881059
-1.0752811 -0.019537384 0.0087859752
-1.0647422 -0.019559564 0.0087613212
-1.054203 -0.019581905 0.0087365331
-1.0436635 -0.019604065 0.0087119639
-1.0348802 -0.019622589 0.0086914059
-1.0260968 -0.019641163 0.0086707585
-1.0155562 -0.019663384 0.0086461147
-1.0050154 -0.019685565 0.0086214952
-0.99447399 -0.019707812 0.0085968161
-0.9839325 -0.019730104 0.0085720634
-0.9751476 -0.019748576 0.0085515305
-0.96636242 -0.01976704 0.0085310405
-0.9558199 -0.019789411 0.0085062543
-0.94527704 -0.01981161 0.008481604
-0.93473381 -0.01983379 0.0084569948
-0.92419028 -0.01985614 0.0084321676
-0.91364628 -0.019878292 0.0084075881
-0.90485942 -0.01989682 0.0083870497
-0.89607239 -0.019915337 0.0083664218
-0.88552743 -0.019937629 0.0083417082
-0.8749823 -0.019959828 0.0083170999
-0.86443663 -0.019982088 0.0082924152
-0.85740614 -0.019996945 0.0082758535
-0.63159448 -0.015849033 0.0077254982
-0.62456703 -0.015863812 0.0077090305
-0.61402559 -0.015885903 0.0076844166
-0.60524094 -0.015904471 0.0076637268
-0.59645587 -0.015922921 0.0076431655
-0.58591348 -0.015945021 0.0076185619
-0.57537079 -0.015967201 0.0075938483
-0.56482774 -0.015989393 0.0075691347
-0.55779886 -0.016004149 0.0075527914
0.5667457 -0.016056683 0.0049093128
0.57555819 -0.016075198 0.00488865
0.58535832 -0.015633548 0.0048635202
0.59494537 -0.016115827 0.0048433235
0.60453618 -0.016598165 0.0048230616
0.61433595 -0.016156565 0.0047978554
0.62491256 -0.01617871 0.0047731614
0.63548946 -0.016200894 0.0047484008
0.64606678 -0.016223175 0.0047235531
0.65586072 -0.015781378 0.0046985117
0.66448009 -0.016724009 0.0046826834
0.67427462 -0.016282327 0.0046575484
0.68485326 -0.016304513 0.0046327855
0.69543219 -0.016326698 0.0046080444
0.70601147 -0.016348923 0.0045832465
0.71580011 -0.015907133 0.0045581693
0.72443545 -0.016849857 0.0045423061
0.73422462 -0.016408065 0.0045172446
0.74480534 -0.016430309 0.0044924463
0.75538617 -0.016452497 0.0044676657
0.76596755 -0.016474681 0.0044429419
0.77575099 -0.016032863 0.0044178157
0.78440207 -0.016975742 0.0044019339
0.79418612 -0.016533887 0.0043768515
0.80476874 -0.016556121 0.004352055
0.81535167 -0.016578307 0.0043272944
0.82593495 -0.016600473 0.0043025636
0.83571309 -0.016158622 0.0042774705
0.8443802 -0.01710159 0.0042615356
0.85415882 -0.01665969 0.0042365147
0.86474353 -0.016681939 0.0042117015
0.87532848 -0.016704177 0.0041868659
0.88591379 -0.016726365 0.0041621001
0.89568663 -0.016284376 0.004137102
0.90436965 -0.017227516 0.0041210949
0.91414303 -0.016785577 0.0040960317
0.92472965 -0.016807748 0.0040712878
0.93531656 -0.016829971 0.0040465072
0.94590396 -0.016852256 0.0040216567
0.95567161 -0.016410213 0.0039966563
0.96437043 -0.017353449 0.0039806394
0.97413868 -0.016911471 0.0039555482
0.98472893 -0.015202021 0.0039226599
0.99472499 -0.014645779 0.0038964872
1.0047171 -0.014089 0.0038703978
1.014714 -0.014687631 0.0038497059
1.0247098 -0.014709009 0.003826322
1.0347059 -0.01472948 0.003802913
1.0452904 -0.014751675 0.0037781249
1.0552974 -0.015349902 0.0037574242
1.0646853 -0.014214551 0.0037300049
1.0746931 -0.014813236 0.003709337
1.085279 -0.01483543 0.0036845224
1.0952767 -0.014856803 0.0036611327
1.105275 -0.014877283 0.0036377045
1.1152933 -0.015475642 0.0036169584
1.1235094 -0.014915485 0.0035950346
0.86672467 -0.0097608659 0.0041744099
0.87376875 -0.0097755231 0.0041579325
0.88433522 -0.009797575 0.0041331989
0.89490205 -0.0098196855 0.0041083861
0.90546918 -0.0098417075 0.0040836874
0.91603667 -0.0098637575 0.0040589091
0.92484319 -0.0098822024 0.0040382738
0.93365002 -0.0099005373 0.0040176683
0.9442184 -0.0099225389 0.0039930441
0.95478725 -0.0099447286 0.0039681667
0.96535635 -0.0099667199 0.0039434531
0.97592586 -0.0099887522 0.0039187591
0.99646676 -0.0042804121 0.0038434751
1.0058447 -0.0031518273 0.003816098
1.0155723 -0.0027127615 0.0037911572
1.0251894 -0.0031919349 0.0037708487
1.0348102 -0.0036711623 0.0037504775
1.0445374 -0.003232172 0.0037255019
1.0550909 -0.0032540197 0.0037008757
1.0656446 -0.003275967 0.0036761125
1.075367 -0.0028368952 0.0036511465
1.084993 -0.0033161093 0.0036308479
1.0946225 -0.0037953849 0.0036105055
1.1043447 -0.0033563313 0.0035854767
1.1149 -0.0033782236 0.0035608031
1.121937 -0.003392827 0.0035442985
0.99820054 0.0060269507 0.0037907506
1.0052185 0.0060124714 0.0037743009
1.0148135 0.0055356091 0.0037539643
1.0245196 0.0059726662 0.003729061
1.0350474 0.005951012 0.0037044871
1.0455756 0.0059292582 0.0036798082
1.0552768 0.0063663712 0.0036549079
1.064877 0.0058895028 0.0036346435
1.0744808 0.0054125711 0.00361433
1.0841818 0.0058496683 0.0035894092
1.0947115 0.0058279787 0.0035647799
1.1052418 0.0058062896 0.0035401287
1.1157722 0.0057845465 0.0035154896
1.0045972 0.015133602 0.0037326918
1.0150996 0.015112122 0.0037081649
1.0256025 0.01509058 0.0036835084
1.0352825 0.015525727 0.0036587107
1.0448571 0.015051179 0.0036384508
1.0553608 0.015029673 0.003613869
1.0649407 0.014555082 0.0035935524
1.0746194 0.01499026 0.0035687962
1.0851241 0.014968753 0.0035441776
1.0956292 0.014947183 0.0035195434
1.1053032 0.015382421 0.0034947949
1.1139696 0.014454688 0.0034787792
0.99932718 0.021957403 0.0037129689
1.0057243 0.024208263 0.0036871738
1.0153834 0.024641395 0.0036624626
1.0249325 0.024169227 0.0036422403
1.0344855 0.023696974 0.0036219708
1.0441442 0.024130126 0.0035971978
1.0546231 0.024108855 0.0035727175
1.0651022 0.024087558 0.0035482009
1.0755821 0.024066232 0.0035236117
1.085235 0.024499487 0.0034989319
1.0947946 0.024027176 0.003478636
1.1052753 0.024005868 0.0034541392
1.1130638 0.023235276 0.0034394462
0.99929005 0.035508968 0.0036490432
1.0055306 0.034930386 0.0036369974
1.0149599 0.035473406 0.0036122752
1.0248269 0.035453949 0.003589205
1.0352745 0.03543289 0.0035647126
1.045151 0.034850489 0.0035442223
1.0550113 0.035393104 0.0035185246
1.0648676 0.035936199 0.0034927868
1.0747465 0.035353348 0.0034723161
1.0851958 0.035332289 0.0034478244
1.0950649 0.035311967 0.0034247192
1.1049343 0.035292525 0.0034016238
1.1113932 0.033029329 0.0033970997
0.99925315 0.048965547 0.0035855493
1.0045527 0.045757033 0.0035882036
1.0145395 0.046249986 0.0035623692
1.0241437 0.046678305 0.0035378162
1.0345606 0.046657559 0.0035134936
1.0449781 0.046636701 0.003489081
1.055396 0.046615899 0.0034646811
1.065814 0.046595108 0.0034402786
1.0754116 0.047023475 0.0034156577
1.0849138 0.046556938 0.0033954997
1.0953327 0.046536166 0.0033712138
1.1048402 0.046069585 0.0033510369
1.0044311 0.055646971 0.0035418065
1.0148233 0.055626348 0.0035174384
1.0252157 0.055605713 0.0034931106
1.0356088 0.05558512 0.003468778
1.0451863 0.056011628 0.0034443103
1.0546621 0.055547357 0.0034241953
1.065056 0.05552673 0.0033998527
1.0745366 0.055062484 0.0033798001
1.0841131 0.055488933 0.00335526
1.0945081 0.055468302 0.0033308377
1.1031704 0.055451147 0.0033105942
0.99921662 0.062328253 0.0035225325
1.0055469 0.064532466 0.0034971796
1.0159148 0.064512081 0.0034729512
1.0254719 0.064936623 0.0034484968
1.0349227 0.06447465 0.0034284459
1.0452918 0.06445422 0.0034041677
1.0547476 0.063992202 0.0033840905
1.0643035 0.064416759 0.0033596077
1.0746735 0.064396359 0.0033353271
1.0850435 0.064375974 0.0033111211
1.0954143 0.06435553 0.003286808
1.1023283 0.064341873 0.0032706219
0.99918014 0.075598069 0.0034601565
1.0049231 0.075583324 0.0034465624
1.0152611 0.075563155 0.0034223581
1.0250248 0.075543672 0.0033994899
1.0347891 0.07552506 0.0033766266
1.0451281 0.075504862 0.003352396
1.0554671 0.075484678 0.003328162
1.0652442 0.074914791 0.0033079365
1.0749993 0.075446539 0.0032824227
1.0847504 0.075978808 0.0032570492
1.0945299 0.075408444 0.0032367308
1.1004045 0.070986792 0.003243801
0.99914402 0.088775761 0.0033978994
1.004876 0.086573385 0.0033947397
1.015184 0.086553417 0.0033706136
1.0245807 0.086096987 0.0033506893
1.034084 0.086516894 0.0033263869
1.0443932 0.086496912 0.0033022156
1.0547024 0.086476959 0.0032780643
1.0650121 0.086457074 0.0032539603
1.0753222 0.086437114 0.0032298041
1.0856326 0.086417146 0.003205633
1.0942248 0.086400554 0.0031855614
1.0042685 0.095319189 0.0033549462
1.0145527 0.095299445 0.00333084
1.0248374 0.095279664 0.0033067239
1.0351223 0.095259935 0.0032826718
1.0454077 0.095240176 0.0032585654
1.0556933 0.095220387 0.0032344342
1.0651699 0.095638491 0.0032102342
1.07455 0.095184237 0.0031903889
1.0848366 0.095164441 0.0031662358
1.092477 0.094422579 0.0031516973
0.9991082 0.10186238 0.0033361642
1.0053729 0.10402144 0.0033112364
1.0156333 0.10400194 0.003287277
1.0258944 0.10398235 0.0032632276
1.0353518 0.10439851 0.0032389625
1.0447061 0.1039465 0.0032191703
1.054968 0.10392692 0.0031951161
1.0652303 0.10390732 0.0031710842
1.0745909 0.10345525 0.0031512193
1.0840462 0.10387144 0.0031270168
1.0908883 0.10385841 0.0031110593
0.99907255 0.11485902 0.00327501
1.004756 0.11484485 0.0032615766
1.0149871 0.11482552 0.003237643
1.0252188 0.11480621 0.0032136859
1.0354506 0.11478685 0.0031897156
1.0451142 0.11476819 0.0031670872
1.0547783 0.11475035 0.0031444537
1.0650111 0.11473102 0.0031205164
1.0752443 0.11471167 0.0030965162
1.0849237 0.11415385 0.0030764092
0.99903721 0.12776636 0.0032140643
1.0047101 0.12560938 0.0032108875
1.014912 0.12559026 0.0031869898
1.0251143 0.12557119 0.0031631247
1.0353168 0.12555206 0.0031392274
1.0446198 0.12510535 0.0031194319
1.0540233 0.12551707 0.0030954212
1.0642267 0.12549794 0.0030715242
1.0744308 0.12547879 0.0030475494
1.0829341 0.12546287 0.0030277078
1.004109 0.13417618 0.0031719061
1.0142877 0.13415723 0.0031480065
1.0244666 0.13413826 0.003124129
1.0346459 0.13411939 0.0031003731
1.0448254 0.13410048 0.0030765457
1.0550054 0.13408153 0.0030526381
1.0651855 0.13406262 0.0030288331
1.0753661 0.13404368 0.0030049703
1.0821533 0.13403107 0.0029890803
0.9990021 0.14058535 0.0031535062
1.0046299 0.14482537 0.0031203341
1.0147794 0.14480668 0.003096588
1.0249295 0.144788 0.0030728097
1.0350797 0.14476925 0.0030490286
1.0452304 0.14475058 0.0030252608
1.0553813 0.14473191 0.0030014792
1.0649571 0.14524558 0.0029765393
1.074555 0.14469658 0.0029565645
1.0802995 0.14043516 0.0029632424
0.99896723 0.15331715 0.0030934995
1.0051466 0.15541822 0.0030691186
1.0152675 0.15539978 0.0030454823
1.0253886 0.15538129 0.0030217341
1.0355101 0.1553628 0.0029979886
1.045632 0.15534432 0.00297432
1.0557541 0.15532587 0.0029506488
1.0658766 0.15530734 0.0029268663
1.0743122 0.155292 0.0029071625
0.9989326 0.16596243 0.0030339544
1.0045475 0.16384956 0.0030307502
1.0146455 0.16383123 0.0030070823
1.0247436 0.16381298 0.0029834632
1.0348423 0.16379467 0.002959775
1.0449411 0.16377632 0.0029360866
1.0550402 0.16375808 0.0029125027
1.0651398 0.16373976 0.0028887969
1.0726374 0.16302516 0.0028745427
0.99889815 0.17852214 0.0029746853
1.0045031 0.17433187 0.0029813345
1.0145725 0.17431383 0.0029577818
1.0246423 0.17429572 0.0029341641
1.0347123 0.17427763 0.0029105695
1.0447828 0.17425956 0.0028869796
1.0548534 0.17424147 0.0028633885
1.0649245 0.17422339 0.002839807
1.0711262 0.1721219 0.002835182
0.99999028 0.18684623 0.002932972
1.004684 0.18434295 0.0029337557
1.0139427 0.18474226 0.0029100003
1.0239842 0.18472439 0.0028865084
1.0340258 0.18470655 0.0028630327
1.0440679 0.18468864 0.0028394666
1.0541101 0.18467081 0.002815915
1.0641527 0.18465297 0.0027924606
0.99940825 0.1951312 0.0028950735
1.0055271 0.19512196 0.0028808182
1.0155401 0.19510433 0.0028573738
1.0255533 0.19508667 0.0028338954
1.0355668 0.19506902 0.0028104384
1.0455807 0.19505137 0.0027869821
1.0555949 0.19503373 0.0027635542
1.0634013 0.19419317 0.0027491227
0.99883002 0.20338821 0.0028574283
1.0049263 0.20543356 0.0028334835
1.0149112 0.20541613 0.0028101159
1.0248963 0.20539868 0.0027867313
1.0348818 0.20538126 0.0027633838
1.0448675 0.20536387 0.0027400535
1.0548537 0.20534636 0.0027165543
1.0615113 0.20533472 0.0027009021
0.99935555 0.21364866 0.00280785
1.0054349 0.21568182 0.0027839364
1.0153918 0.21566461 0.002760635
1.0253491 0.21564737 0.002737294
1.0353067 0.21563013 0.0027139792
1.0452647 0.21561292 0.002690664
1.055223 0.21559569 0.0026673232
0.99932021 0.22588819 0.0027501229
1.0059396 0.22587682 0.0027345929
1.0158688 0.22585984 0.0027113755
1.0257984 0.22584279 0.0026881387
1.0357283 0.22582574 0.0026648047
1.0456585 0.22580874 0.0026415077
1.053934 0.2257946 0.0026222297
0.99984068 0.23602574 0.0027010734
1.00535 0.23399226 0.0026977146
1.0152572 0.23397541 0.0026744779
1.0251647 0.23395856 0.002651281
1.0355327 0.23480716 0.0026229003
1.0449498 0.23594612 0.0025953883
1.05212 0.23492259 0.0025833256
0.99926662 0.2440916 0.0026643372
1.0053043 0.2440829 0.0026501466
1.015184 0.2440663 0.0026270512
1.0250641 0.24404962 0.0026038873
1.0345259 0.2445371 0.0025793277
1.044794 0.24603014 0.0025481319
1.0503149 0.24401 0.0025446389
0.99869645 0.25213063 0.0026276084
1.004712 0.25412241 0.0026041619
1.0145644 0.25410596 0.0025810632
1.0244172 0.2540895 0.0025579608
1.0342702 0.25407305 0.0025348773
1.0441235 0.25405666 0.0025118506
0.99921542 0.26212099 0.0025793375
1.0052145 0.26410115 0.0025558739
1.0150397 0.26408491 0.0025328475
1.0248653 0.26406863 0.0025098447
1.0346912 0.26405239 0.0024868026
1.0428797 0.26403889 0.002467643
0.99918097 0.27403933 0.002523134
1.0051602 0.27600649 0.0024997746
1.0149531 0.27599052 0.0024768584
1.0247464 0.27597448 0.0024538906
1.0350783 0.276353 0.0024278245
1.0416417 0.27396983 0.0024236429
0.9991467 0.28587937 0.0024673296
1.0056573 0.28586879 0.0024520291
1.0154234 0.285853 0.0024292166
1.0251898 0.2858372 0.0024063243
1.0349566 0.28582135 0.0023833776
0.99911267 0.29764181 0.0024118824
1.0050695 0.29567546 0.0024071503
1.0148089 0.29565984 0.0023843637
1.0245486 0.29564422 0.0023615609
1.0332139 0.29507115 0.0023438372
0.99962348 0.30738541 0.00236477
1.0050248 0.30543128 0.0023611758
1.0147377 0.30541584 0.0023384057
1.025225 0.30512127 0.0023151988
1.0325463 0.30538756 0.0022966885
0.99852324 0.31514081 0.0023306701
1.0049808 0.31513068 0.0023155636
1.0146674 0.31511539 0.0022928657
1.0248924 0.31509966 0.0022688922
1.0308584 0.3112185 0.0022731707
0.99796087 0.32479179 0.0022863769
1.0044008 0.32478178 0.0022713321
1.0149021 0.32504034 0.0022453987
1.0244766 0.32436559 0.0022260691
0.99847168 0.33438554 0.0022399791
1.0048943 0.33437565 0.0022248896
1.0150603 0.33474267 0.0021992391
1.0230993 0.33358216 0.0021857836
0.99844033 0.34583291 0.0021859279
1.0048423 0.34582311 0.0021709884
1.0149753 0.34618786 0.0021453898
1.0213981 0.34389681 0.0021411348
0.99894595 0.35531682 0.0021399371
1.0053307 0.35530722 0.0021249705
1.0149078 0.3552928 0.0021025916
0.99838734 0.36474827 0.0020967845
1.0047548 0.36473879 0.0020818363
1.0132495 0.36418834 0.0020644679
0.99835652 0.37600055 0.0020437271
1.0047038 0.3759912 0.0020288615
1.0115867 0.37504596 0.0020170738
0.99833077 0.38532418 0.0019997486
1.0054163 0.38504821 0.0019844344
0.9983055 0.39459506 0.0019560547
1.0040954 0.39412439 0.0019446588
0.99827522 0.40565717 0.0019038975
1.0024743 0.40491635 0.0018975623
0.99772769 0.41482443 0.0018619291
1.0008661 0.41482002 0.0018546022
0.99822617 0.42393875 0.001817739
-1.3147266 -0.68538046 0.01249229
-1.3044463 -0.68541312 0.012468267
-1.2941656 -0.68544555 0.012444275
-1.2859411 -0.68547165 0.012425075
-1.2756599 -0.6855042 0.012401055
-1.2653785 -0.68553686 0.012376972
-1.2550964 -0.68556923 0.012353039
-1.2448144 -0.68560183 0.012329018
-1.2345319 -0.68563455 0.012304966
-1.2242491 -0.68566704 0.012280914
-1.2160225 -0.68569303 0.012261745
-1.2057391 -0.68572563 0.012237693
-1.1954553 -0.68575811 0.012213671
-1.1851712 -0.68579078 0.012189659
-1.1748868 -0.68582344 0.012165627
-1.1646019 -0.68585587 0.012141625
-1.1543169 -0.68588841 0.012117613
-1.1460886 -0.68591458 0.012098353
-1.1358027 -0.685947 0.012074391
-1.1255168 -0.68597972 0.012050294
-1.1152303 -0.68601227 0.012026277
-1.1049435 -0.68604475 0.01200231
-1.0946566 -0.68607742 0.011978175
-1.0843692 -0.6861099 0.011954267
-1.076139 -0.68613595 0.011935037
-1.065851 -0.68616861 0.011910941
-1.0555627 -0.68620121 0.011886889
-1.045274 -0.68623382 0.011862916
-1.0349851 -0.68626642 0.011838815
-1.0246955 -0.68629903 0.011814813
-1.0132512 -0.6842218 0.011778024
-1.005475 -0.68318951 0.011754977
-0.99519187 -0.68322212 0.011730838
-0.98490834 -0.68325454 0.011706932
-0.97558224 -0.6839183 0.011688039
-0.9654395 -0.6826821 0.011658424
-0.95501071 -0.68398321 0.011640025
-0.94487321 -0.68274719 0.011610338
-0.93443787 -0.6840483 0.011591988
-0.92430556 -0.68281215 0.011562246
-0.91497171 -0.68347573 0.011543482
-0.90563375 -0.68413943 0.011524618
-0.89550841 -0.68290311 0.011495003
-0.88505775 -0.68420452 0.011476526
-0.87493742 -0.68296814 0.011446953
-0.86448032 -0.68426961 0.011428507
-0.85436505 -0.68303311 0.011398927
-0.84501958 -0.68369693 0.011380099
-0.83473116 -0.68372941 0.01135609
-0.82444251 -0.68376189 0.011332054
-0.81508923 -0.68442571 0.0113132
-0.80498618 -0.68318927 0.011283586
-0.79450721 -0.68449086 0.011265157
-0.78440928 -0.68325436 0.011235493
-0.77505195 -0.68391824 0.011216655
-0.76476127 -0.68395072 0.011192565
-0.75447029 -0.68398321 0.011168558
-0.74510509 -0.68464714 0.011149684
-0.73501933 -0.68341047 0.011120116
-0.72565359 -0.68407434 0.01110124
-0.71536136 -0.68410689 0.011077198
-0.70506871 -0.68413943 0.011053159
-0.69477576 -0.68417197 0.011029109
-0.68448246 -0.68420458 0.01100507
-0.67510551 -0.68486851 0.010986186
-0.66503692 -0.68363154 0.01095672
-0.65565944 -0.68429559 0.010937849
-0.64948273 -0.68431509 0.010923456
-1.3129774 -0.67694217 0.012448219
-1.3048327 -0.67528236 0.012421259
-1.294524 -0.67657888 0.012403212
-1.2843171 -0.67534703 0.012373406
-1.2750571 -0.67600822 0.012354731
-1.2657927 -0.67666948 0.012336081
-1.2555929 -0.67543757 0.012306301
-1.2452688 -0.67673427 0.01228811
-1.235074 -0.67550224 0.01225834
-1.2247436 -0.67679894 0.012240132
-1.2145537 -0.67556685 0.012210451
-1.205282 -0.67622817 0.01219172
-1.1950196 -0.67626047 0.012167793
-1.184757 -0.6762929 0.012143744
-1.1754774 -0.67695427 0.012125119
-1.1652998 -0.67572218 0.012095342
-1.1549476 -0.677019 0.012077188
-1.144775 -0.67578679 0.012047382
-1.1344165 -0.67708367 0.01202918
-1.124249 -0.67585152 0.011999404
-1.1149619 -0.6765129 0.011980711
-1.1056707 -0.67717445 0.011961997
-1.0955101 -0.67594206 0.011932269
-1.0851363 -0.67723912 0.011914047
-1.0749809 -0.67600667 0.011884374
-1.0646006 -0.67730385 0.01186613
-1.0544503 -0.67607135 0.011836383
-1.0451514 -0.6767329 0.011817701
-1.0348839 -0.67676526 0.011793659
-1.024616 -0.67679751 0.011769745
-1.0164013 -0.67682356 0.011750488
-1.0054345 -0.6736967 0.011709942
-0.9951728 -0.67372894 0.011685915
-0.98491073 -0.67376131 0.011661998
-0.97464836 -0.67379349 0.01163808
-0.96438557 -0.67382574 0.011614143
-0.95412254 -0.67385805 0.011590095
-0.94591188 -0.67388391 0.011570881
-0.93564826 -0.67391634 0.01154685
-0.92538428 -0.67394853 0.011523016
-0.91511995 -0.67398089 0.011499005
-0.90485531 -0.67401314 0.011474987
-0.89459032 -0.67404538 0.011451021
-0.88432503 -0.67407787 0.011426914
-0.87611252 -0.67410356 0.011407848
-0.86584657 -0.67413586 0.011383896
-0.85558033 -0.67416823 0.011359924
-0.84531373 -0.67420053 0.011335902
-0.83504677 -0.67423272 0.01131194
-0.82477969 -0.67426521 0.011287838
-0.8145119 -0.67429733 0.011264089
-0.80424404 -0.67432976 0.011239973
-0.79397577 -0.67436206 0.011215987
-0.78576088 -0.67438787 0.011196787
-0.77549201 -0.67442018 0.01117279
-0.76522291 -0.67445254 0.011148743
-0.75495332 -0.67448491 0.011124826
-0.7446835 -0.67451715 0.011100878
-0.73441321 -0.6745494 0.011076871
-0.72414279 -0.67458189 0.01105273
-0.71592605 -0.67460769 0.01103359
-0.70565492 -0.67463994 0.011009668
-0.69538343 -0.67467237 0.010985665
-0.6851117 -0.67470479 0.010961625
-0.6748395 -0.67473698 0.010937741
