4.7914285213 8.1923034865 2.7528147402
-1.6089533488 8.1918752408 3.4985605653
4.6393832828 8.1923922035 3.3537555551
1.1405514322 1.2665840342 -0.0001954490
-0.3129484174 8.1919298607 3.1582687328
-1.6596351383 8.1918708484 3.4985605653
5.2910058761 8.1924228963 3.2017102678
3.4375015785 8.1923125945 3.4985605668
0.7894332270 1.7195319367 0.0107814042
-1.7609986180 8.1918620637 3.4985605653
0.9906517469 0.6640297726 -0.0000854626
-1.8116803479 8.1918576713 3.4985605653
1.3905426331 1.5200022020 -0.0002738388
-2.0071671709 8.1918407293 3.4985605652
5.0882788147 8.1922101322 2.0505103872
4.0384424950 8.1921866677 2.4487241650
-2.6081079893 8.1917555022 3.3030737640
-2.0578488810 8.1918363370 3.4985605652
-0.0093287622 1.7159301099 0.4016110556
2.7931192630 8.1922567488 3.4985605666
3.7415921443 8.1922542416 2.9989832703
4.1398059788 8.1923734601 3.4985605670
4.8927921132 8.1921674098 1.8984651394
-2.1085306506 8.1918319446 3.4985605652
0.4400376943 8.1920368584 3.4044373429
-2.1592123806 8.1918275523 3.4985605652
1.7432828606 8.1921571707 3.4478787972
-1.0586942744 8.1918897830 3.3030737645
-0.5591169442 8.1919502661 3.4044373426
0.8889332556 8.1920585752 3.3030737650
5.2910058709 8.1924818229 3.5492422967
1.0404516745 1.1149692087 -0.0001570604
3.7415921368 8.1923389487 3.4985605669
-0.1102213729 8.1919965357 3.4478787967
-1.7609986129 8.1918043646 3.1582687323
0.9904744520 1.2122629699 -0.0001620510
3.4375015912 8.1921689607 2.6514512413
-2.4633029588 8.1918011981 3.4985605651
1.1930237926 8.1921266691 3.5492422955
0.1905630613 1.6108670194 -0.0000801733
4.8927920877 8.1924559050 3.5999241055
-2.7094714918 8.1917798637 3.4985605650
4.2411694844 8.1923147247 3.1003467690
3.9877606897 8.1923602830 3.4985605670
4.5887015170 8.1923448437 3.1003467691
5.3416876994 8.1924948088 3.5999241056
-2.9628802606 8.1917579019 3.4985605649
0.6906515152 0.7136595825 -0.0000408366
-1.9564853664 8.1916757075 2.4994059523
-3.3104123484 8.1916774497 3.2017102653
4.4438964828 8.1923408876 3.1510284786
2.8872425282 8.1922489467 3.4044373436
4.5887015095 8.1924295508 3.5999241054
-3.3104123528 8.1917277829 3.4985605648
-2.6081079908 8.1917726892 3.4044373420
-0.1609031327 8.1919921433 3.4478787966
0.1939274613 1.8155667184 0.5515218498
-3.3610939437 8.1917233905 3.4985605648
-2.1085306447 8.1917644245 3.1003467672
0.2398590174 1.7065001079 -0.0001020075
-0.6604804544 8.1919488472 3.4478787965
4.7914285169 8.1923538197 3.0496650000
-3.4117758922 8.1917189982 3.4985605648
-3.5131393123 8.1917102134 3.4985605648
0.5408564793 1.4687842898 -0.0001205629
4.2411694798 8.1923662855 3.4044373440
2.4383469527 8.1922505550 3.6433655786
1.6120087227 1.8839751709 0.0518706884
0.6427647201 8.1920617937 3.4478787969
2.6410740022 8.1922607586 3.5999241048
5.2910058724 8.1924646360 3.4478787982
-3.7086262133 8.1916773122 3.4044373417
-2.7601532408 8.1917668779 3.4478787959
4.9869152544 8.1924382818 3.4478787981
-3.7593078056 8.1916888791 3.4985605647
1.2410038629 1.7222752986 0.2528892892
0.5414012008 8.1920787894 3.5999241042
1.2871470551 8.1920930866 3.3030737651
0.9904561462 1.4152491909 -0.0001904049
5.1389605683 8.1921715572 1.7971016012
-3.8027495779 8.1916851142 3.4985605647
3.8936374472 8.1923361665 3.4044373439
1.7939646188 8.1921787500 3.5492422957
0.8392572469 1.7222970677 0.4025098938
5.4358110633 8.1924943726 3.5492422968
-0.0507275182 1.7158824708 0.0511742135
-0.0088578613 8.1919807676 3.3030737648
5.1896424507 8.1924730382 3.5492422967
2.8872425268 8.1922649060 3.4985605666
5.2403240445 8.1924442843 3.3537555553
4.0891241873 8.1921665073 2.3039191331
4.2918511898 8.1923706779 3.4044373440
2.6410740015 8.1922681245 3.6433655786
5.3923693134 8.1922364864 2.0505103873
1.3378288188 8.1920802920 3.2017102667
4.5380198271 8.1921121105 1.7536600676
5.3416877211 8.1922492810 2.1518738957
2.0401331534 8.1921828973 3.4478787973
1.0907753058 1.1636109056 -0.0001725105
3.9877607137 8.1920889748 1.8984651391
0.7368879868 8.1920368046 3.2523920753
5.1389605420 8.1924686459 3.5492422967
3.9370789174 8.1921606960 2.3473606665
3.0899695466 8.1922738820 3.4478787976
4.8927920885 8.1924473115 3.5492422966
4.3425329997 8.1921455017 2.0505103869
5.0375972029 8.1924426742 3.4478787982
-0.8632075010 8.1919067250 3.3030737645
1.1911333154 1.7222686644 0.2030173170
4.7914285094 8.1924385268 3.5492422966
-3.4117758900 8.1916944454 3.3537555528
4.6900650098 8.1924297421 3.5492422966
2.5903922653 8.1922232200 3.4044373435
0.1410587946 1.7159092864 0.2526065959
0.1866288977 8.1920480428 3.5999241041
0.7875697403 8.1920669774 3.4044373430
-0.3129484240 8.1920047467 3.5999241040
-3.0570035252 8.1917583382 3.5492422943
4.1398059915 8.1922298263 2.6514512415
4.8421103057 8.1923668055 3.1003467692
-0.3636301738 8.1920003543 3.5999241039
-2.0071671695 8.1918247700 3.4044373422
4.7407468290 8.1923236469 2.8976197721
5.3923693014 8.1923727543 2.8541782389
3.9370789002 8.1923558907 3.4985605670
4.4438964865 8.1922979202 2.8976197721
-2.5067444919 8.1917888397 3.4478787960
5.2910058791 8.1923885224 2.9989832708
-3.5638212607 8.1917058211 3.4985605648
-3.3610939415 8.1916988378 3.3537555528
2.4890287296 8.1921726956 3.1582687336
0.7875697396 8.1920743433 3.4478787969
0.0913881113 1.7159024992 0.2015592630
-3.7086262140 8.1916846780 3.4478787956
0.8405650861 0.6639694908 -0.0000596367
-2.0071671650 8.1917732092 3.1003467672
1.5052255539 2.0691003823 0.4015196579
3.9370789084 8.1922625901 2.9483014615
0.3386741841 8.1920354395 3.4478787968
-3.7086262169 8.1917178242 3.6433655768
-0.2115849116 8.1919803851 3.4044373427
-2.8615167809 8.1917666867 3.4985605650
3.6909103844 8.1921393617 2.3473606664
-2.0071671642 8.1917646157 3.0496649981
4.3932147337 8.1923279018 3.1003467690
3.6909103664 8.1923431498 3.5492422963
4.1398059796 8.1923648666 3.4478787979
0.5414012068 8.1920112692 3.2017102664
1.4404157892 1.4159666786 -0.0002678370
5.3923692925 8.1924734207 3.4478787983
1.1412582709 1.7223418454 0.7377538926
0.8392572955 1.7222834215 0.3027640159
0.8889332534 8.1920831280 3.4478787969
4.8421103206 8.1921973914 2.1011921363
-1.9130438364 8.1917224398 2.7528147383
-1.8768426818 8.1917759104 3.0496649981
-1.1600577784 8.1919313315 3.5999241037
5.3416877016 8.1924690284 3.4478787982
2.4890287275 8.1921972483 3.3030737655
3.4881833882 8.1920886460 2.1518738951
1.3885105815 8.1921350176 3.4985605662
0.4400376913 8.1920700046 3.5999241042
-1.2614213177 8.1919225468 3.5999241037
3.3868198684 8.1923082022 3.4985605668
-1.0586942759 8.1919069700 3.4044373424
-0.1102213752 8.1920223161 3.5999241040
5.2403240408 8.1924860241 3.5999241056
1.2410024900 1.7222957123 0.4025047276
-2.7094714904 8.1917639044 3.4044373420
0.7893840985 1.7222972585 0.4025105386
0.8382514937 8.1921118819 3.6433655781
0.1410558258 1.7158818306 0.0511757164
-1.8768426713 8.1916568294 2.3473606648
0.1866289006 8.1920148966 3.4044373428
5.1896424529 8.1924484855 3.4044373443
1.1408123608 1.5193892582 -0.0002308105
-1.3627848173 8.1919137620 3.5999241037
0.1381715251 2.1499821401 0.0523820488
5.1896424598 8.1923711442 2.9483014619
2.3876651860 8.1922130164 3.4478787974
-3.5638212615 8.1917144145 3.5492422942
2.4383469534 8.1922431892 3.5999241048
0.4901411808 1.7223390691 0.7017555695
0.1866288970 8.1920554086 3.6433655779
-1.7103168499 8.1918836430 3.5999241036
4.6393832866 8.1923492361 3.1003467691
-1.9130438310 8.1916622854 2.3980424141
-1.8623621559 8.1918373196 3.4044373422
4.9362335429 8.1924510764 3.5492422966
5.0882787974 8.1924053268 3.2017102677
-2.5067444942 8.1918146201 3.5999241033
1.1406872888 0.9146845146 -0.0001462709
2.1921784303 8.1922218549 3.5999241047
-2.7094714933 8.1917970507 3.5999241033
3.3868198676 8.1923167956 3.5492422962
-1.9564853642 8.1916499271 2.3473606648
-1.7103168484 8.1918664560 3.4985605653
-2.4126212061 8.1917724442 3.3030737641
1.4391923291 8.1921639627 3.6433655783
4.8927920870 8.1924632708 3.6433655793
-2.9121985720 8.1917794812 3.5999241032
1.5725663487 1.9523209626 0.1012963023
-1.9564853649 8.1916585206 2.3980424140
4.0384424771 8.1923892282 3.6433655790
-2.7601532438 8.1918000242 3.6433655771
4.7407468461 8.1921296799 1.7536600677
0.6397641808 1.7223434884 0.7377702135
2.1921784347 8.1921715216 3.3030737654
3.8429556918 8.1921697257 2.4487241650
-3.1583670255 8.1917581469 3.5999241031
4.6393832993 8.1922056023 2.2532374039
3.1913330859 8.1922826667 3.4478787976
-1.3627848165 8.1919051686 3.5492422948
-2.9121985704 8.1917622943 3.4985605650
0.1909991399 1.9716712448 -0.0001306468
-3.3104123544 8.1917449698 3.5999241031
3.2926966230 8.1923172319 3.5999241050
3.3868198662 8.1923327549 3.6433655788
-1.9130438273 8.1916205457 2.1518738936
-1.8623621595 8.1918778317 3.6433655773
1.4797287654 2.1132678223 0.4016292164
4.7407468267 8.1923494274 3.0496650000
-1.0586942765 8.1919143358 3.4478787964
-0.1102213745 8.1920137226 3.5492422952
3.7415921533 8.1921523475 2.3980424157
2.3876651866 8.1922056506 3.4044373434
-1.8768426728 8.1916740163 2.4487241633
2.0908149274 8.1921381841 3.1582687335
3.4881833762 8.1922236863 2.9483014614
-2.2605759582 8.1918028082 3.4044373421
3.5388651282 8.1922035259 2.8034964494
-0.4070716686 8.1920039553 3.6433655777
0.1407840398 1.4682694613 -0.0000516900
4.8927920929 8.1923969783 3.2523920765
-3.8027495794 8.1917023012 3.5999241029
-2.3619394578 8.1917940235 3.4044373421
3.2420148357 8.1922870591 3.4478787976
4.2411694918 8.1922300176 2.6007694327
-1.1600577718 8.1918564455 3.1582687325
-0.4070716680 8.1919965894 3.5999241039
3.7922738667 8.1923433411 3.4985605669
1.6268966860 1.8572926774 0.0124083066
1.6926011052 8.1921036727 3.1582687333
1.5904048068 1.7555452063 -0.0003411069
-2.0071671410 8.1915019009 1.5002513095
2.8365607556 8.1922777006 3.5999241049
2.8872425276 8.1922563125 3.4478787975
1.0916602889 8.1920515919 3.1582687332
-3.1583670240 8.1917409600 3.4985605649
4.3425329794 8.1923750703 3.4044373440
5.3416876987 8.1925021746 3.6433655794
3.4881833845 8.1921303857 2.3980424156
4.8421103154 8.1922563180 2.4487241653
4.5380198100 8.1923060775 2.8976197721
1.0905599534 1.6121379251 -0.0002351213
3.0392877541 8.1923026359 3.6433655787
-1.4569080589 8.1918798244 3.4478787963
1.2437055488 8.1921138745 3.4478787971
5.1896424493 8.1924889975 3.6433655794
1.6027925797 1.8726692769 0.0075820445
0.6427647193 8.1920703871 3.4985605660
-3.5131393138 8.1917274004 3.5999241030
5.1389605406 8.1924846052 3.6433655794
1.6996669200 1.7322327479 0.3011388541
3.6402286615 8.1922798308 3.2017102673
-1.3121030476 8.1919181544 3.5999241037
-0.2115849152 8.1920208972 3.6433655778
1.1412609642 1.7222892395 0.3526340124
3.5388651350 8.1921261846 2.3473606664
-3.2090488114 8.1917120148 3.3537555528
5.0375972006 8.1924684546 3.5999241055
0.1381720937 2.1499889108 0.1020132386
1.5576307990 1.9783204531 0.4018717457
2.9886060675 8.1922577314 3.4044373436
5.3923692902 8.1924992011 3.5999241056
-1.8768426593 8.1915217891 1.5509330687
3.3868198721 8.1922664624 3.2523920761
-3.0135620715 8.1917706965 3.5999241032
1.4910121405 1.8575578088 -0.0003382683
3.1913330844 8.1922998537 3.5492422961
-2.2098941900 8.1918231599 3.4985605652
-1.3627848128 8.1918634288 3.3030737644
3.5895468937 8.1920299106 1.7536600673
0.5898898025 1.7223319359 0.6518795637
-1.6596351339 8.1918205152 3.2017102658
5.3416877001 8.1924862153 3.5492422967
0.1938892867 1.7672996419 0.3516874896
-2.3112576712 8.1918315621 3.5999241034
4.6900650084 8.1924457014 3.6433655792
3.0392877556 8.1922866766 3.5492422961
3.1913330873 8.1922667074 3.3537555547
3.9877606875 8.1923848358 3.6433655790
4.7407468178 8.1924500938 3.6433655792
1.4903857846 1.5201372743 -0.0002910265
0.4402634649 1.7222916071 0.3526409698
2.1921784325 8.1921960744 3.4478787973
3.7415921623 8.1920504535 1.7971016008
-2.1592123827 8.1918521050 3.6433655772
0.8908100595 1.6118552863 -0.0002007310
4.0891241851 8.1921910601 2.4487241650
3.8429556739 8.1923722862 3.6433655790
-2.8108349936 8.1917956318 3.6433655770
4.2918511929 8.1923363040 3.2017102675
3.4375015934 8.1921431803 2.4994059538
-3.3104123479 8.1916713115 3.1655089477
1.1906927482 1.4696151012 -0.0002324320
-2.1085306522 8.1918491316 3.5999241034
3.9877606889 8.1923688765 3.5492422963
4.5887015192 8.1923190633 2.9483014617
3.7415921346 8.1923635015 3.6433655789
-3.5131393144 8.1917347662 3.6433655768
1.7939646196 8.1921701565 3.4985605663
3.8936374465 8.1923435323 3.4478787978
0.2879924201 8.1920236813 3.4044373428
-2.8615167824 8.1917838736 3.5999241032
3.6402286638 8.1922540503 3.0496649997
4.9838123130 8.1921521484 1.7619346228
2.6917557679 8.1921976308 3.2017102670
3.5388651268 8.1922194852 2.8976197718
2.6410740030 8.1922521652 3.5492422960
4.8421103221 8.1921802044 1.9998286378
3.8429556775 8.1923317741 3.4044373439
4.9362335436 8.1924424829 3.4985605672
4.3932147256 8.1924199747 3.6433655791
0.4400376979 8.1919951186 3.1582687330
3.6402286549 8.1923547168 3.6433655789
0.3903893028 1.7223121820 0.5022637428
5.2910058851 8.1923210022 2.6007694330
-2.4633029603 8.1918183850 3.5999241033
-3.5131393115 8.1917016200 3.4478787957
3.4375015763 8.1923371473 3.6433655789
0.7395111559 1.7223382491 0.7017479809
-2.5067444905 8.1917728804 3.3537555530
3.3433783324 8.1923289901 3.6433655788
0.1410631800 1.7159499158 0.5506106804
4.4873380211 8.1922943193 2.8541782386
-2.6081079937 8.1918058354 3.5999241033
5.1389605487 8.1923925322 3.1003467693
3.1406513405 8.1922291688 3.1582687338
5.2910058701 8.1924904164 3.5999241056
-3.2090488150 8.1917537546 3.5999241031
4.2918511869 8.1924038241 3.5999241053
0.8392571983 1.7223107035 0.5022553439
4.2918512079 8.1921668898 2.2025556347
0.8889332505 8.1921162742 3.6433655781
-1.4569080612 8.1919056048 3.5999241036
0.9396150104 8.1920875203 3.4478787970
0.4901390653 1.7222982464 0.4025143835
5.4358110767 8.1923421453 2.6514512419
4.9869152537 8.1924468753 3.4985605673
1.9387696552 8.1921581533 3.3537555543
0.6896362403 1.7222633147 0.1517587450
1.0415159441 1.7223421681 0.7377571370
0.1939155533 1.7673175327 0.5016184927
3.6909103731 8.1922670362 3.1003467688
-3.3610939387 8.1916669191 3.1655089477
4.6900650361 8.1921326534 1.7971016011
4.5380198189 8.1922054111 2.3039191333
4.5887015162 8.1923534372 3.1510284786
1.1423420364 8.1921382360 3.6433655782
-0.0595396095 8.1919591883 3.2017102663
3.1406513332 8.1923114206 3.6433655788
3.9877607122 8.1921061617 1.9998286376
5.1896424544 8.1924312985 3.3030737663
-0.0088578664 8.1920384667 3.6433655779
1.9387696567 8.1921409664 3.2523920757
4.4873380093 8.1924281319 3.6433655792
-2.0578488668 8.1916755163 2.5500877412
4.1904877072 8.1923950394 3.5999241053
0.9416776733 1.7194557666 0.0107226375
3.0899695437 8.1923070282 3.6433655788
1.1423420386 8.1921136833 3.4985605661
-2.5067444877 8.1917409618 3.1655089480
0.7893841278 1.7223040621 0.4523834616
0.8382514944 8.1921045160 3.5999241043
-3.6072625525 8.1916603165 3.2523920741
4.8927920892 8.1924387181 3.4985605672
4.5380198039 8.1923748253 3.3030737661
5.2403240402 8.1924933899 3.6433655794
-0.8125257060 8.1919614505 3.5999241038
5.2403240535 8.1923423903 2.7528147404
-0.4070716650 8.1919634432 3.4044373426
2.8872425246 8.1922894588 3.6433655787
-2.0578488817 8.1918449304 3.5492422946
3.7415921450 8.1922456481 2.9483014615
1.3885105808 8.1921436111 3.5492422956
-2.5067444948 8.1918219860 3.6433655771
3.9877606926 8.1923271368 3.3030737659
3.0899695458 8.1922824755 3.4985605667
1.0916602882 8.1920589577 3.2017102666
4.3932147450 8.1922002273 2.3473606666
-0.4577534383 8.1919995629 3.6433655777
3.9877607091 8.1921405356 2.2025556346
4.7407468192 8.1924341344 3.5492422966
5.4358110662 8.1924612263 3.3537555553
-1.9130438348 8.1917052528 2.6514512398
-1.8644307995 8.1917946991 3.1541314434
-2.7094714926 8.1917884572 3.5492422944
4.0384424822 8.1923315291 3.3030737659
3.7922738907 8.1920720328 1.8984651390
3.0899695503 8.1922321423 3.2017102672
3.7415921360 8.1923475422 3.5492422963
4.4873380114 8.1924035792 3.4985605671
-0.4577534376 8.1919921971 3.5999241039
-1.9130438483 8.1918574801 3.5492422946
0.7907717474 0.9144331156 -0.0000861103
-1.2107395075 8.1919183456 3.5492422948
0.7406544130 0.8663117519 -0.0000707685
-2.8108349929 8.1917882660 3.5999241032
2.5397104987 8.1921844538 3.2017102670
1.1412623758 1.7222618276 0.1517595978
1.1930237947 8.1921021163 3.4044373431
-3.2090488143 8.1917451611 3.5492422943
0.1853906687 1.7167374491 0.0106919621
0.7368879810 8.1921030972 3.6433655781
-2.0578488562 8.1915564353 1.8477833384
3.7415921353 8.1923561356 3.5999241051
-1.8116803428 8.1917999723 3.1582687323
-3.4117758914 8.1917104047 3.4478787957
0.6407541309 1.3655346509 -0.0001233214
3.2926966237 8.1923086384 3.5492422961
1.5724428046 1.9524614724 0.0130631587
0.1410595253 1.7159160593 0.3022742120
0.1866288984 8.1920394493 3.5492422952
2.9379242567 8.1922692984 3.4985605667
4.0384424814 8.1923401226 3.3537555549
-0.9138892453 8.1919526658 3.5999241038
3.4881833687 8.1923083934 3.4478787977
2.4890287230 8.1922475816 3.5999241048
0.1431874051 8.1920270910 3.4985605659
-3.8027495765 8.1916691549 3.4044373416
5.0375972171 8.1922818535 2.4994059543
0.5920829579 8.1920574013 3.4478787969
-0.0088578605 8.1919721742 3.2523920751
4.8927920906 8.1924227588 3.4044373442
5.4358110834 8.1922660317 2.2025556350
3.4881833776 8.1922077270 2.8541782384
-2.3112576718 8.1918389279 3.6433655772
1.6120370486 1.8841107395 0.4884082290
0.6397640427 1.7223385762 0.7017510163
0.4404385524 1.2658193912 -0.0000749443
-2.3619394607 8.1918271698 3.5999241034
-2.4126212105 8.1918227774 3.5999241033
4.6393832934 8.1922731225 2.6514512417
1.4898740789 8.1921683551 3.6433655783
-3.5638212600 8.1916972276 3.4478787957
-1.6596351354 8.1918377021 3.3030737643
0.3405126038 1.7222987363 0.4025163053
4.6900650165 8.1923536285 3.1003467691
-3.1076853346 8.1917539458 3.5492422943
-1.4569080619 8.1919129706 3.6433655774
1.8374061513 8.1921984742 3.6433655784
1.0415166063 1.7223236522 0.6019953923
-1.2107395083 8.1919269391 3.5999241037
1.0916602816 8.1921338437 3.6433655782
-3.0135620700 8.1917535096 3.4985605649
4.0891241694 8.1923690677 3.4985605670
1.5912375990 8.1921697740 3.5999241045
-1.2107395023 8.1918594190 3.2017102659
0.5920829571 8.1920659948 3.4985605660
1.6926010994 8.1921699652 3.5492422957
0.5400133721 1.7222844742 0.3027661116
-2.1085306528 8.1918564974 3.6433655772
2.4890287253 8.1922218011 3.4478787974
0.8392574195 1.7222490239 0.0506266953
0.3386741818 8.1920612199 3.5999241041
1.5912375998 8.1921611805 3.5492422957
2.6410740082 8.1921932385 3.2017102670
0.5409301506 1.3197168496 -0.0000997561
5.0375972000 8.1924758205 3.6433655793
3.5388651297 8.1921863389 2.7021329707
1.9387696560 8.1921495598 3.3030737653
0.2373106567 8.1920598010 3.6433655779
3.7415921510 8.1921781280 2.5500877429
-0.8125257053 8.1919528571 3.5492422950
-3.0570035230 8.1917337854 3.4044373419
3.1406513361 8.1922782744 3.4478787976
3.4375015769 8.1923297815 3.5999241050
0.5898876073 1.7222706558 0.2030179934
-0.8632075032 8.1919312777 3.4478787964
-0.3636301694 8.1919500211 3.3030737647
4.1398059990 8.1921451192 2.1518738953
-2.2605759618 8.1918433203 3.6433655772
-0.0595396147 8.1920181150 3.5492422952
5.1389605570 8.1922992317 2.5500877433
-3.3104123550 8.1917523357 3.6433655769
4.1398059773 8.1923906471 3.5999241052
1.5405558387 8.1921727475 3.6433655783
4.9869152558 8.1924223225 3.3537555552
-3.7086262162 8.1917104584 3.5999241030
0.5400159752 1.7223438180 0.7377734592
0.7395104111 1.7222769467 0.2528913227
4.7407468319 8.1922905007 2.7021329711
0.7875697388 8.1920829367 3.4985605660
1.0406051942 0.9146234746 -0.0001290465
0.3406160592 1.1143014259 -0.0000366170
-0.7111622012 8.1919113086 3.2523920749
1.4402646750 1.7083061107 -0.0003086942
4.2918511863 8.1924111900 3.6433655791
2.0401331577 8.1921337918 3.1582687334
-2.6081079901 8.1917640957 3.3537555530
3.6909103650 8.1923591091 3.6433655789
4.7407468185 8.1924427279 3.5999241054
-1.6089533495 8.1918838342 3.5492422947
1.5195659151 2.0441321843 0.1014132965
5.1389605472 8.1924097192 3.2017102678
1.9894514106 8.1922116512 3.6433655784
5.3416877158 8.1923082077 2.4994059544
4.0891241672 8.1923936205 3.6433655790
2.2428601952 8.1921673205 3.2523920758
2.5397104979 8.1921930472 3.2523920759
3.3868198698 8.1922922429 3.4044373437
-2.0578488616 8.1916165896 2.2025556328
-2.5067444927 8.1917974332 3.4985605651
0.6907091640 1.6115747642 -0.0001662805
-0.1609031305 8.1919675906 3.3030737647
1.5195775641 2.0441970399 0.3026104652
-1.1093760286 8.1919357238 3.5999241037
4.7914285154 8.1923710066 3.1510284787
5.2910058799 8.1923799289 2.9483014619
-3.1583670262 8.1917655128 3.6433655769
-1.4062262717 8.1919099972 3.5999241036
-0.1102213708 8.1919719829 3.3030737647
-2.7601532431 8.1917926583 3.5999241032
5.1389605480 8.1924011257 3.1510284788
3.3868198692 8.1922996087 3.4478787977
0.6407036406 0.7636107577 -0.0000392346
-1.0080125197 8.1919518744 3.6433655776
4.7914285367 8.1921291618 1.7246991249
5.0375972014 8.1924598611 3.5492422967
-3.6579443810 8.1916473306 3.2017102652
1.5576680191 1.9781501101 0.1514333973
2.6917557619 8.1922651510 3.5999241048
4.8927920952 8.1923711979 3.1003467692
-2.9628802628 8.1917824547 3.6433655770
0.8906562081 0.8127175905 -0.0000890214
-0.8632075055 8.1919570582 3.5999241038
-2.0578488773 8.1917945973 3.2523920745
-3.4624576030 8.1917231993 3.5492422942
-2.5574262241 8.1918102278 3.5999241033
3.6402286563 8.1923387574 3.5492422962
5.0882787915 8.1924728470 3.5999241055
0.0925056432 8.1920472514 3.6433655779
4.3425329801 8.1923664768 3.3537555550
4.6393832791 8.1924339432 3.5999241054
4.8421103176 8.1922317652 2.3039191333
4.9869152522 8.1924640623 3.5999241055
1.4819591338 1.3685990553 -0.0002683602
-1.6596351398 8.1918880353 3.5999241036
5.2910058694 8.1924977823 3.6433655794
4.8421102989 8.1924429192 3.5492422966
1.7432828635 8.1921240244 3.2523920756
0.2401324209 1.3193087957 -0.0000479691
1.4531266233 2.1487896303 0.3505841823
4.2411694762 8.1924067976 3.6433655791
4.6393832799 8.1924253497 3.5492422965
-1.1093760292 8.1919430897 3.6433655775
-0.2622666713 8.1919759928 3.4044373427
-1.1600577724 8.1918638113 3.2017102659
-2.5574262196 8.1917598946 3.3030737640
0.9916443442 1.7223423372 0.7377587629
-1.4062262702 8.1918928102 3.4985605654
-1.5075898492 8.1918840255 3.4985605654
4.6900650330 8.1921670273 1.9998286378
3.0392877585 8.1922535303 3.3537555546
1.0409785275 8.1921220855 3.5999241043
-1.2107395090 8.1919343050 3.6433655775
1.5723941076 1.9525984066 0.0517143632
4.5380197994 8.1924251585 3.5999241054
1.6518157824 1.8150610166 0.1523310129
0.0913936284 1.7159500831 0.5506117540
0.9396150147 8.1920384148 3.1582687331
4.0384424800 8.1923560819 3.4478787979
-2.1085306499 8.1918233511 3.4478787961
-0.5084352073 8.1919878047 3.5999241039
-2.4633029551 8.1917594584 3.2523920744
-0.1609031356 8.1920252896 3.6433655778
4.1398059780 8.1923820536 3.5492422964
-2.0071671724 8.1918579163 3.5999241035
0.9396150081 8.1921133008 3.5999241043
-0.1609031297 8.1919589971 3.2523920751
0.8907394249 1.0139711854 -0.0001172069
0.5414012075 8.1920039034 3.1582687330
1.5196264755 2.0441333533 0.3523690253
4.7914285176 8.1923452262 2.9989832707
-1.6596351376 8.1918622549 3.4478787962
4.0891241977 8.1920486539 1.6088550753
-1.7103168439 8.1918161228 3.2017102658
4.1904877266 8.1921752920 2.3039191332
4.7407468296 8.1923162811 2.8541782387
-1.9564853717 8.1917358618 2.8541782368
-2.0578488802 8.1918277435 3.4478787961
1.3554400080 1.8536121173 -0.0003143974
-0.5084352021 8.1919288780 3.2523920750
1.2871470521 8.1921262329 3.4985605662
3.4881833830 8.1921475727 2.4994059539
-2.3112576645 8.1917554485 3.1510284766
2.1414966919 8.1922002755 3.4985605664
0.4400376958 8.1920196714 3.3030737649
-2.1592123738 8.1917514386 3.0496649980
-3.1076853353 8.1917625393 3.5999241031
-1.9130438341 8.1916966593 2.6007694309
-1.8623621529 8.1918029457 3.2017102657
0.4402646820 1.7223120192 0.5022628092
4.8421103011 8.1924183664 3.4044373441
4.3932147495 8.1921498941 2.0505103870
-0.8632075040 8.1919398712 3.4985605656
-2.9121985690 8.1917463350 3.4044373419
0.5898902244 1.7223436507 0.7377718358
1.4906996354 1.9749579704 -0.0003546131
4.7914285296 8.1922101859 2.2025556348
4.0384424965 8.1921694808 2.3473606665
4.2918511974 8.1922847432 2.8976197720
5.0882787908 8.1924802128 3.6433655793
-2.1592123792 8.1918115930 3.4044373421
4.2918512004 8.1922515969 2.7021329710
-0.5084352028 8.1919374715 3.3030737646
-2.2098941878 8.1917986071 3.3537555531
4.9869152581 8.1923965421 3.2017102677
4.9869152574 8.1924051356 3.2523920766
1.5901489177 1.8044681722 -0.0003479053
3.7415921555 8.1921277948 2.2532374036
-0.5084352079 8.1919951705 3.6433655777
0.1009469571 2.1499822755 0.0523818226
4.1904877095 8.1923692590 3.4478787979
1.2409997492 1.7223365666 0.7017327083
1.7432828591 8.1921743576 3.5492422957
1.5725819620 1.9523998607 0.3519249589
0.6934464750 8.1920919664 3.5999241042
3.3868198729 8.1922578690 3.2017102673
1.5938915795 1.9154014643 0.1523876793
0.2879924237 8.1919819415 3.1582687329
0.3893559432 8.1919907263 3.1582687330
1.4898740862 8.1920861033 3.1582687333
2.8365607550 8.1922850664 3.6433655787
-3.8027495800 8.1917096670 3.6433655768
1.4404830747 1.8570610681 -0.0003295073
1.2437055466 8.1921396549 3.5999241044
0.1950207202 1.8156908367 0.0115782192
0.7893839825 1.7222699788 0.2030177687
0.8382514967 8.1920787356 3.4478787969
0.1837456065 1.7195382490 0.3021559828
-2.1519720950 8.1914893513 1.5002513095
0.2373106597 8.1920266548 3.4478787968
-0.8125257023 8.1919197108 3.3537555535
1.4642246505 2.1400195530 0.1518104662
0.0418238834 8.1920428590 3.6433655779
4.5380198002 8.1924165650 3.5492422965
2.5397104934 8.1922433804 3.5492422959
-0.9573307799 8.1919562668 3.6433655776
-2.1085306424 8.1917386440 2.9483014598
0.0550910737 1.5248341127 -0.0000448594
1.0409785341 8.1920471995 3.1582687332
1.2871470506 8.1921434198 3.5999241044
3.0899695480 8.1922579227 3.3537555547
-1.8116803501 8.1918822241 3.6433655773
1.4898740811 8.1921438023 3.4985605662
5.2910058738 8.1924486767 3.3537555553
5.1896424672 8.1922864371 2.4487241654
2.2863016893 8.1921710854 3.2523920758
-3.0570035237 8.1917411512 3.4478787958
-0.0595396161 8.1920340743 3.6433655778
-2.9121985726 8.1917868471 3.6433655770
1.6419193533 8.1921238331 3.3030737652
1.2410043210 1.7222684918 0.2030172609
1.2871470543 8.1921016801 3.3537555541
-0.2622666720 8.1919833586 3.4478787966
2.3369834491 8.1921754778 3.2523920758
1.1423420370 8.1921308702 3.5999241044
-0.0595396118 8.1919849688 3.3537555537
0.1067814726 2.1244532731 -0.0001375016
0.7893840411 1.7222835876 0.3027643642
4.1904877101 8.1923618932 3.4044373440
4.7914285259 8.1922519257 2.4487241653
-0.7618439617 8.1919155097 3.3030737645
0.1837308337 1.7195319560 0.0512575381
1.4391923321 8.1921308165 3.4478787971
0.2373106618 8.1920021020 3.3030737648
4.6900650308 8.1921928077 2.1518738955
-2.1592123769 8.1917858125 3.2523920745
2.0908149208 8.1922130701 3.5999241047
3.5388651470 8.1919911443 1.5509330703
-1.5075898478 8.1918680662 3.4044373423
5.1896424680 8.1922778436 2.3980424161
3.3868198736 8.1922492755 3.1510284783
2.2863016886 8.1921796789 3.3030737654
2.8365607616 8.1922101804 3.2017102671
0.7893839523 1.7222629856 0.1517589334
2.6917557627 8.1922565575 3.5492422960
0.2211905746 1.9566114400 -0.0001337298
-2.8615167831 8.1917912394 3.6433655770
3.6402286646 8.1922454569 2.9989832703
4.0891241942 8.1920891660 1.8477833402
3.9370789106 8.1922380373 2.8034964495
0.5414012002 8.1920861552 3.6433655780
4.3932147285 8.1923868284 3.4478787980
-3.2090488098 8.1916948279 3.2523920742
0.3903291758 1.6625232975 -0.0001217383
-0.8125257067 8.1919688164 3.6433655776
0.8889332548 8.1920671687 3.3537555540
-3.3610939429 8.1917147971 3.4478787957
5.4358110775 8.1923335518 2.6007694331
3.1406513391 8.1922451281 3.2523920760
-2.1085306439 8.1917558310 3.0496649980
-0.6604804573 8.1919819935 3.6433655777
3.4375015994 8.1920756602 2.1011921359
-3.3104123536 8.1917363764 3.5492422942
0.5414012038 8.1920456431 3.4044373429
0.7897786238 1.5639556226 -0.0001766671
3.0392877614 8.1922203841 3.1582687337
-1.6596351405 8.1918954012 3.6433655774
0.5903476867 1.2661647568 -0.0001007716
4.7407468275 8.1923408339 2.9989832706
-0.6097987032 8.1919372803 3.3537555536
0.4901414339 1.7223439828 0.7377750839
4.0891241829 8.1922168405 2.6007694327
3.4881833672 8.1923255804 3.5492422962
5.2910058858 8.1923124088 2.5500877434
-1.9564853785 8.1918119754 3.3030737642
1.8374061571 8.1921321817 3.2523920757
1.2437055459 8.1921470208 3.6433655782
0.5906345096 0.7136222961 -0.0000236410
4.2918511921 8.1923448975 3.2523920764
0.1939553830 1.8154059231 0.7016561423
0.7875697367 8.1921074895 3.6433655781
0.6407256413 1.3197663333 -0.0001169241
4.9362335414 8.1924670357 3.6433655793
3.6909103716 8.1922842231 3.2017102673
3.9370789263 8.1920600296 1.7536600674
3.8429556836 8.1922630263 2.9989832704
1.1905992904 1.3659929756 -0.0002179438
1.4529679129 2.1488289394 0.2508620254
4.0891241791 8.1922598079 2.8541782385
-2.5574262247 8.1918175936 3.6433655771
-0.8632075061 8.1919644240 3.6433655776
-3.8027495757 8.1916605614 3.3537555527
4.6900650300 8.1922014012 2.2025556348
0.0925056438 8.1920398856 3.5999241041
4.3425329809 8.1923578833 3.3030737660
-1.6596351391 8.1918794419 3.5492422947
5.3416877143 8.1923253946 2.6007694330
-1.7103168454 8.1918333098 3.3030737643
-2.3619394614 8.1918345356 3.6433655772
4.0384424777 8.1923818623 3.5999241052
-1.3627848143 8.1918806158 3.4044373423
-2.2098941915 8.1918403468 3.5999241034
1.6419193482 8.1921815322 3.6433655783
-2.1085306492 8.1918159853 3.4044373421
-0.9573307792 8.1919489009 3.5999241038
-2.6081079915 8.1917800550 3.4478787959
1.3885105845 8.1921018713 3.3030737652
1.6269547884 1.8581478559 0.2016989155
0.7395112162 1.7223431612 0.7377669666
4.2411695031 8.1921023431 1.8477833402
2.2863016841 8.1922300121 3.5999241047
-1.0586942751 8.1918983765 3.3537555534
-0.1102213759 8.1920296820 3.6433655778
3.7415921660 8.1920087138 1.5509330704
-0.9573307777 8.1919317140 3.4985605655
-1.4569080597 8.1918884178 3.4985605654
-1.2614213169 8.1919139533 3.5492422948
-2.3957273395 8.1917411713 3.1100004941
4.4873380301 8.1921924252 2.2532374039
3.5895468668 8.1923343651 3.5492422962
2.4890287260 8.1922144353 3.4044373435
-3.1583670218 8.1917164072 3.3537555528
-2.2098941870 8.1917900136 3.3030737641
3.4881833897 8.1920714591 2.0505103867
-3.2597306046 8.1917493622 3.5999241031
2.0401331504 8.1922160436 3.6433655785
-3.3610939452 8.1917405775 3.5999241031
0.6896359623 1.7222495174 0.0506255234
0.7368879824 8.1920871378 3.5492422954
1.6270628680 1.8580662271 0.4514888153
0.1431874029 8.1920516438 3.6433655779
2.5903922646 8.1922305859 3.4478787974
4.1904877147 8.1923103323 3.1003467690
3.4375016061 8.1919995465 1.6522965688
-1.0080125168 8.1919187281 3.4478787964
-1.0586942795 8.1919474820 3.6433655776
4.5887015088 8.1924369167 3.6433655792
3.9877607047 8.1921908688 2.4994059540
-2.7601532366 8.1917190000 3.1655089479
0.2402710688 1.7653734052 -0.0001103022
-0.9138892446 8.1919440723 3.5492422949
1.4391923327 8.1921234507 3.4044373432
3.0899695443 8.1922996624 3.5999241049
-3.0135620650 8.1916970382 3.1655089478
4.8927921086 8.1922189707 2.2025556349
0.2879924165 8.1920641934 3.6433655779
0.4907194454 8.1920817628 3.6433655780
3.4375015829 8.1922622613 3.2017102673
3.9370788994 8.1923644841 3.5492422963
0.6896366512 1.7222839640 0.3027650652
-0.1609031320 8.1919847775 3.4044373427
4.1904877066 8.1924024053 3.6433655791
3.9370789023 8.1923313379 3.3537555549
-2.6587897030 8.1917928496 3.5492422944
-3.4117758885 8.1916772584 3.2523920741
1.6926010980 8.1921859245 3.6433655784
4.0891241702 8.1923604743 3.4478787979
-1.3627848179 8.1919211279 3.6433655775
3.3433783396 8.1922467382 3.1582687338
4.2411694813 8.1923490986 3.3030737660
0.3903911416 1.7223393992 0.7017586045
4.2411694828 8.1923319116 3.2017102675
2.6410740051 8.1922276124 3.4044373435
-3.4117758937 8.1917361851 3.5999241031
0.3893559359 8.1920729781 3.6433655780
-3.5131393109 8.1916942541 3.4044373417
3.7415921615 8.1920590470 1.8477833401
2.3876651831 8.1922461627 3.6433655786
0.5920829549 8.1920905475 3.6433655780
-0.0595396110 8.1919763753 3.3030737648
-0.6604804559 8.1919660341 3.5492422950
4.3425329758 8.1924155823 3.6433655791
-1.4569080604 8.1918970113 3.5492422948
0.6905680678 0.9637949452 -0.0000757735
4.8927920937 8.1923883849 3.2017102677
1.2904731945 1.1152037252 -0.0002000394
0.6906643224 1.1631472258 -0.0001036393
3.8429556821 8.1922802133 3.1003467689
0.9902967676 8.1920919127 3.4478787970
1.4529671598 2.1488098793 0.1516657460
-2.5574262233 8.1918016343 3.5492422944
1.3378288122 8.1921551780 3.6433655782
0.5900500134 1.7194780762 0.0107859932
0.6427647244 8.1920126881 3.1582687330
5.3923693075 8.1923040065 2.4487241654
3.9370789061 8.1922883705 3.1003467689
4.8927921042 8.1922693039 2.4994059543
1.7939646174 8.1921947093 3.6433655784
2.9379242552 8.1922864853 3.5999241049
5.3923692939 8.1924574614 3.3537555553
-3.7593078077 8.1917134319 3.6433655768
-0.0595396155 8.1920267085 3.5999241040
3.4375016084 8.1919737661 1.5002513111
4.9362335421 8.1924596699 3.5999241055
0.7395103280 1.7222701423 0.2030178248
-2.0578488832 8.1918608898 3.6433655773
0.7875697381 8.1920915302 3.5492422954
-3.2090488135 8.1917365676 3.4985605649
3.5388651207 8.1922882330 3.3030737658
3.8936374727 8.1920476713 1.7029783281
-0.3636301745 8.1920077201 3.6433655778
1.5912375984 8.1921771398 3.6433655783
-3.1076853331 8.1917367589 3.4478787958
-1.5582716012 8.1919041859 3.6433655774
1.2853293110 1.7223295833 0.6518604190
2.1414966949 8.1921671293 3.3030737654
0.1431874043 8.1920356845 3.5492422952
-1.7609986202 8.1918866164 3.6433655773
1.7432828577 8.1921903169 3.6433655784
0.1908860454 1.3648097735 -0.0000458560
0.0909497052 1.6620852667 -0.0000701939
1.6803722868 1.7656987551 0.4016461033
-1.0080125154 8.1919027688 3.3537555535
4.1904877109 8.1923532997 3.3537555550
3.5388651156 8.1923459320 3.6433655789
0.8392571248 1.7223311162 0.6518727061
2.8365607601 8.1922273674 3.3030737656
1.8880879011 8.1922028665 3.6433655784
0.4402626521 1.7222779972 0.2528925391
5.3416877113 8.1923597685 2.8034964499
3.5895468683 8.1923171781 3.4478787977
-1.5582715946 8.1918292999 3.2017102658
4.5380198062 8.1923490448 3.1510284786
-3.6072625584 8.1917266090 3.6433655768
3.4881833935 8.1920284917 1.7971016007
4.5887015102 8.1924209574 3.5492422965
0.1947194160 1.9135743787 -0.0001231678
-2.0071671731 8.1918652821 3.6433655773
5.0882788139 8.1922187257 2.1011921364
-2.6081079885 8.1917469087 3.2523920744
-0.3129484211 8.1919716004 3.4044373427
0.9417724487 1.7223424931 0.7377603814
3.9370789069 8.1922797770 3.0496649998
4.9869152596 8.1923793551 3.1003467692
5.3416877203 8.1922578744 2.2025556350
2.0401331540 8.1921755315 3.4044373433
0.4907573555 1.2118924954 -0.0000760652
3.8429556963 8.1921193925 2.1518738952
-2.8615167802 8.1917580932 3.4478787959
-1.4569080583 8.1918724585 3.4044373423
2.0908149223 8.1921958832 3.4985605664
-2.9628802614 8.1917664954 3.5492422943
4.1398059878 8.1922715661 2.8976197720
-1.9130438490 8.1918660735 3.5999241035
0.8392570824 1.7223428313 0.7377637202
0.9916452295 1.7223101540 0.5022524834
4.4438964887 8.1922733675 2.7528147401
1.0409785269 8.1921294513 3.6433655782
3.8936374569 8.1922256790 2.7528147400
2.2428601923 8.1922004668 3.4478787973
1.4391923350 8.1920976702 3.2523920755
1.2410001984 1.7223297295 0.6518616383
-2.8615167765 8.1917163535 3.2017102654
3.2420148342 8.1923042460 3.5492422961
-1.9564853724 8.1917432277 2.8976197702
-2.6587897045 8.1918088089 3.6433655771
-3.1076853288 8.1916888809 3.1655089478
0.4411657635 1.5187409356 -0.0001104017
1.8880879017 8.1921955007 3.5999241046
2.0908149201 8.1922204360 3.6433655785
0.9417726816 1.7223307763 0.6518698862
-3.0570035266 8.1917742975 3.6433655770
1.2907196928 1.3205732464 -0.0002288145
0.6910391473 1.3654011114 -0.0001319516
-1.9130438454 8.1918243338 3.3537555532
2.5903922660 8.1922146265 3.3537555545
-3.5638212593 8.1916898618 3.4044373417
-1.6596351361 8.1918462956 3.3537555533
5.1389605547 8.1923250121 2.7021329712
0.8382515010 8.1920296300 3.1582687331
4.6900650173 8.1923450350 3.0496650000
4.5887015304 8.1921926165 2.2025556348
3.3868198871 8.1920970482 2.2532374035
-0.2622666743 8.1920091390 3.5999241040
-0.2115849145 8.1920135314 3.5999241040
2.1414966964 8.1921499423 3.2017102669
0.4907194520 8.1920068768 3.2017102664
0.2903281256 1.1629486061 -0.0000347653
0.2879924171 8.1920568275 3.5999241041
2.8872425319 8.1922072070 3.1582687337
5.0375972036 8.1924353084 3.4044373442
2.4890287224 8.1922549474 3.6433655786
0.3893559366 8.1920656123 3.5999241042
2.4383469563 8.1922100429 3.4044373435
0.0418238878 8.1919937535 3.3537555538
4.6393832874 8.1923406426 3.0496650000
-0.6604804567 8.1919746276 3.5999241039
-2.8108349906 8.1917624855 3.4478787959
4.3932147502 8.1921413006 1.9998286377
-0.8632075047 8.1919484647 3.5492422949
-1.6596351369 8.1918548891 3.4044373423
0.4907194461 8.1920743970 3.5999241042
-2.0578488570 8.1915650287 1.8984651373
4.3932147299 8.1923708691 3.3537555550
0.5920829556 8.1920831817 3.5999241042
4.1398059938 8.1922040459 2.4994059540
5.3416877068 8.1924101017 3.1003467693
2.3876651874 8.1921970571 3.3537555544
3.4375016009 8.1920584732 1.9998286374
0.7368879816 8.1920957313 3.5999241043
-2.1519720980 8.1915237252 1.7029783263
-2.2605759604 8.1918273610 3.5492422945
-1.3121030439 8.1918764147 3.3537555534
-1.7103168462 8.1918419032 3.3537555533
0.1837662544 1.7195469666 0.6524105016
0.7875697373 8.1921001237 3.5999241043
3.6909103723 8.1922756296 3.1510284784
1.1930237918 8.1921352626 3.5999241044
1.3378288128 8.1921478122 3.5999241044
-1.7609986173 8.1918534702 3.4478787962
0.7368879845 8.1920625851 3.4044373430
3.3868198706 8.1922836494 3.3537555547
1.0898306449 0.7146264427 -0.0001095845
0.3909049057 1.6111505181 -0.0001146646
1.4391923298 8.1921565969 3.5999241045
-3.2597306031 8.1917321752 3.4985605649
0.7395102424 1.7222631486 0.1517588393
1.4898740796 8.1921609893 3.5999241045
-0.7111622057 8.1919616418 3.5492422950
1.2871470514 8.1921348263 3.5492422956
1.4908218170 1.4697510473 -0.0002840183
1.5405558393 8.1921653816 3.5999241045
1.0406866424 0.8129378338 -0.0001148599
0.3406560229 1.2116651027 -0.0000502207
-2.1519721099 8.1916587655 2.4994059522
-3.1583670232 8.1917323665 3.4478787958
3.5388651230 8.1922624526 3.1510284783
1.6926010986 8.1921785587 3.5999241045
1.2406916215 1.0637953021 -0.0001842956
0.5906592558 1.2118507704 -0.0000932368
1.5052760746 2.0689917204 0.3514731734
3.9370789092 8.1922539966 2.8976197719
5.3923692984 8.1924059006 3.0496650002
0.2373106634 8.1919849150 3.2017102663
3.8429556828 8.1922716198 3.0496649998
-3.3104123521 8.1917191894 3.4478787957
3.6402286585 8.1923142047 3.4044373438
1.7432828583 8.1921829511 3.5999241046
-1.0080125146 8.1918941754 3.3030737645
4.5380198219 8.1921710372 2.1011921363
5.2403240416 8.1924774306 3.5492422967
0.4907097858 1.0135957296 -0.0000483621
2.7424375117 8.1922695434 3.5999241048
1.7939646181 8.1921873434 3.5999241046
1.9894514112 8.1922042854 3.5999241046
2.1414966904 8.1922174625 3.5999241047
0.1938633610 1.8154837745 0.2024782086
3.4375016002 8.1920670667 2.0505103867
1.4391923313 8.1921394100 3.4985605662
3.5388651410 8.1920586645 1.9491468783
2.1921784296 8.1922292207 3.6433655785
-3.6579443840 8.1916817045 3.4044373417
2.5397104927 8.1922519739 3.5999241048
2.2428601907 8.1922176537 3.5492422958
3.5359690533 8.1919840186 1.5103876709
-1.5075898485 8.1918754320 3.4478787963
3.5388651163 8.1923385662 3.5999241051
-0.5591169464 8.1919748189 3.5492422950
-0.1102213686 8.1919474301 3.1582687328
-2.3619394592 8.1918099828 3.4985605651
3.8429556798 8.1923059937 3.2523920762
0.2903872051 1.2657514116 -0.0000491308
4.3425329832 8.1923321029 3.1510284785
0.6906555857 0.8145442222 -0.0000549401
1.2902043227 1.4697447090 -0.0002495621
0.1431874065 8.1920111317 3.4044373428
-1.7103168476 8.1918578626 3.4478787962
-3.2597305994 8.1916904355 3.2523920742
0.8905152960 1.7223105359 0.5022543856
3.8429556911 8.1921783192 2.4994059540
4.3425329772 8.1923996230 3.5492422965
4.7407468440 8.1921542327 1.8984651393
-1.9130438393 8.1917555860 2.9483014599
1.3408077961 1.3205022030 -0.0002373747
0.8392571738 1.7223175073 0.5521279050
0.8889332511 8.1921089084 3.5999241043
1.0401150704 1.5640724776 -0.0002197315
-2.1085306289 8.1915864168 2.0505103851
1.9387696530 8.1921827061 3.4985605664
2.9886060646 8.1922908777 3.5999241049
4.9362335615 8.1922399225 2.3039191334
4.2918511981 8.1922773773 2.8541782386
3.1913330852 8.1922912602 3.4985605667
-1.3627848136 8.1918720223 3.3537555534
1.0913901263 1.7222757871 0.2528898955
5.4358110640 8.1924857791 3.4985605674
0.8889332519 8.1921003149 3.5492422954
4.4873380389 8.1920929865 1.6667771200
-2.3112576637 8.1917468550 3.1003467671
4.8927920900 8.1924301246 3.4478787981
4.6900650338 8.1921584338 1.9491468786
3.0392877563 8.1922780831 3.4985605667
3.1913330836 8.1923084471 3.5999241050
0.5400121725 1.7222568153 0.1004987630
-1.9130438371 8.1917310332 2.8034964478
-1.8768426810 8.1917673169 2.9989832687
0.8905156922 1.7222764520 0.2528907103
-1.3121030483 8.1919255202 3.6433655775
3.3868198669 8.1923253891 3.5999241050
-1.5582716005 8.1918968201 3.5999241036
-0.0093233449 1.7159711078 0.7023751360
3.5895468743 8.1922496580 3.0496649997
5.4358110618 8.1925103319 3.6433655794
4.5380198182 8.1922127769 2.3473606667
-0.0088578597 8.1919635807 3.2017102663
0.8906731578 0.6639743549 -0.0000682567
4.4438964835 8.1923322941 3.1003467691
3.4881833665 8.1923341738 3.5999241051
-2.7094714940 8.1918044165 3.6433655771
3.5895468660 8.1923429586 3.5999241051
4.0891241836 8.1922082470 2.5500877430
1.9894514135 8.1921785050 3.4478787973
-1.9130438289 8.1916377327 2.2532374020
-0.5591169449 8.1919576319 3.4478787965
-1.8623621581 8.1918618724 3.5492422947
4.7407468252 8.1923666143 3.1510284787
3.8429556761 8.1923477334 3.4985605669
3.6402286556 8.1923473509 3.5999241051
3.6909103656 8.1923517433 3.5999241051
1.0906288291 0.8642986705 -0.0001306237
-0.0507152102 1.7159712499 0.7023764035
0.6904978691 1.3200127983 -0.0001255175
1.2902076513 1.3663057071 -0.0002351163
3.7922738652 8.1923605280 3.5999241051
-2.5574262218 8.1917844474 3.4478787959
4.5380198069 8.1923404514 3.1003467691
3.8429556746 8.1923649204 3.5999241052
4.6900650113 8.1924125551 3.4478787981
0.1939297441 1.8505305404 0.5519883389
3.7922738787 8.1922083008 2.7021329708
-3.5638212586 8.1916812683 3.3537555527
3.7922738727 8.1922758209 3.1003467689
2.1414966927 8.1921916821 3.4478787973
5.1389605600 8.1922648578 2.3473606668
1.1423420415 8.1920805370 3.3030737651
3.8429556903 8.1921869127 2.5500877430
1.3378288180 8.1920888855 3.2523920755
1.0913886436 1.7223098157 0.5022506148
3.8936374443 8.1923693127 3.5999241052
0.3100350156 1.7223260512 0.6020133627
1.8880879069 8.1921365740 3.2523920757
-0.9138892460 8.1919600316 3.6433655776
0.4906346699 0.9141584553 -0.0000344570
4.7914285086 8.1924471203 3.5999241054
5.0375972276 8.1921627725 1.7971016012
4.0891241679 8.1923862547 3.5999241052
3.6909103739 8.1922584427 3.0496649997
-1.7103168470 8.1918504967 3.4044373422
-1.2107395060 8.1919011587 3.4478787963
4.3425329764 8.1924082165 3.5999241053
2.2428601915 8.1922090603 3.4985605665
3.9877607009 8.1922338362 2.7528147400
0.5920829600 8.1920328485 3.3030737649
4.9869152664 8.1923032415 2.6514512418
1.4391923342 8.1921062637 3.3030737652
0.9417730867 1.7223103615 0.5022534252
2.5903922617 8.1922637321 3.6433655786
4.3932147262 8.1924126089 3.5999241053
0.8392573699 1.7222628219 0.1517590276
3.6402286578 8.1923215705 3.4478787977
3.9370789257 8.1920673955 1.7971016008
2.7424375125 8.1922609499 3.5492422960
-0.7111622071 8.1919776011 3.6433655777
0.4408994888 1.2118488542 -0.0000674834
2.4383469600 8.1921683032 3.1582687336
4.2411694776 8.1923908383 3.5492422964
-3.5638212570 8.1916640813 3.2523920741
-1.8116803465 8.1918417120 3.4044373422
4.4438964760 8.1924170012 3.5999241053
3.6402286623 8.1922712373 3.1510284783
4.4873380099 8.1924207661 3.5999241053
0.5414012016 8.1920701959 3.5492422953
4.8421102982 8.1924515127 3.5999241055
0.4909153255 1.3195318268 -0.0000911280
0.0925056483 8.1919895524 3.3030737648
1.6926011046 8.1921110386 3.2017102668
5.1896424500 8.1924816317 3.5999241056
1.8374061549 8.1921579621 3.4044373433
5.4358110625 8.1925029661 3.5999241056
0.7411693020 1.6633248017 -0.0001821843
3.4375016040 8.1920240993 1.7971016007
-1.0080125176 8.1919273216 3.4985605655
4.1398059817 8.1923403139 3.3030737660
3.7415921547 8.1921363882 2.3039191330
4.2411694821 8.1923405051 3.2523920764
-3.8027495786 8.1916937077 3.5492422941
-3.0135620686 8.1917375503 3.4044373419
0.1431874035 8.1920442779 3.5999241041
-2.2098941921 8.1918477127 3.6433655772
3.4881833837 8.1921389792 2.4487241649
3.4375015844 8.1922450744 3.1003467688
4.0384424912 8.1922296351 2.7021329709
-3.7593078063 8.1916974726 3.5492422941
3.4375015875 8.1922107005 2.8976197718
0.2903010757 1.6113462592 -0.0000973894
2.7931192638 8.1922481553 3.4478787975
0.0913897030 1.7159162295 0.3022745598
-3.7086262155 8.1917018649 3.5492422941
4.4438964783 8.1923912208 3.4478787980
5.0375972126 8.1923334143 2.8034964498
-3.6579443862 8.1917062573 3.5492422941
-1.9564853574 8.1915738135 1.8984651374
3.8429556993 8.1920850187 1.9491468784
2.9886060640 8.1922982435 3.6433655787
-1.4062262723 8.1919173630 3.6433655775
-1.2107395054 8.1918937929 3.4044373424
2.9886060683 8.1922491380 3.3537555546
4.3932147553 8.1920836016 1.6595368246
4.5887015327 8.1921668361 2.0505103870
-3.6072625570 8.1917106497 3.5492422941
-1.9564853605 8.1916081874 2.1011921344
-2.0578488825 8.1918535239 3.5999241035
5.1389605652 8.1922059311 1.9998286379
-2.6587896994 8.1917511099 3.3030737640
-3.5638212563 8.1916554879 3.2017102652
-3.5131393130 8.1917188069 3.5492422942
3.9370789136 8.1922036634 2.6007694326
1.6926011023 8.1921368190 3.3537555542
5.3416877151 8.1923168011 2.5500877434
-0.4577534354 8.1919664166 3.4478787966
-3.4117758929 8.1917275916 3.5492422942
3.2926966223 8.1923245977 3.6433655788
-3.0570035223 8.1917251919 3.3537555529
5.3416877076 8.1924015082 3.0496650002
5.4358110865 8.1922316578 1.9998286380
-0.0093260849 1.7159504282 0.5506139378
2.7931192608 8.1922813016 3.6433655787
-3.3610939444 8.1917319840 3.5492422942
2.2863016857 8.1922128252 3.4985605665
-2.3619394547 8.1917596496 3.2017102656
5.3923693149 8.1922192994 1.9491468788
5.1896424724 8.1922275104 2.1011921364
-3.1583670248 8.1917495534 3.5492422943
4.5887015267 8.1922343562 2.4487241652
1.4898740856 8.1920934691 3.2017102667
-0.4070716643 8.1919548497 3.3537555536
-3.0135620708 8.1917621030 3.5492422943
-2.9121985712 8.1917708878 3.5492422943
0.5905842588 0.8144781212 -0.0000377206
-3.1076853338 8.1917453523 3.4985605649
2.4383469541 8.1922345957 3.5492422959
3.6909103911 8.1920632481 1.8984651390
-2.8615167817 8.1917752801 3.5492422944
-3.0570035244 8.1917497447 3.4985605649
3.1913330830 8.1923158130 3.6433655788
-1.9130438379 8.1917396267 2.8541782368
-1.8768426803 8.1917587234 2.9483014599
-2.5067444934 8.1918060267 3.5492422945
4.3425330056 8.1920779816 1.6522965690
-2.3112576704 8.1918229686 3.5492422945
1.1405884176 1.1637297575 -0.0001810855
3.5895468960 8.1920041302 1.6016148196
-1.6596351332 8.1918131493 3.1582687324
-2.2605759544 8.1917598408 3.1510284766
-2.1085306514 8.1918405381 3.5492422946
0.4400376936 8.1920442242 3.4478787968
-1.7609986195 8.1918792506 3.5999241035
-2.0071671717 8.1918493228 3.5492422946
2.5903922623 8.1922563663 3.5999241048
0.7368879839 8.1920699509 3.4478787969
2.8872425261 8.1922734995 3.5492422960
0.1938553535 1.8508209091 0.1520635082
-1.7609986188 8.1918706571 3.5492422947
2.7424375132 8.1922523564 3.4985605666
-0.7111622064 8.1919702353 3.5999241038
0.5906927724 0.7636111331 -0.0000306349
4.0891241956 8.1920732067 1.7536600675
-1.4062262709 8.1919014037 3.5492422948
0.2898524061 1.6626643511 -0.0001044789
-0.9573307785 8.1919403074 3.5492422949
4.3425329937 8.1922130219 2.4487241651
2.3369834468 8.1922012582 3.4044373434
4.7914285251 8.1922605191 2.4994059542
4.4873380204 8.1923016851 2.8976197721
